x;y;z;c;clase
-544.7069286417542;544.7069286417543;1282.047619047619;0.0;0.0
-360.76940034233087;507.65186252833155;1276.904761904762;0.0;0.0
-206.69229363352392;482.2492525041446;1266.6825396825398;0.0;0.0
-65.01796362286763;455.131552892554;1263.1587301587301;0.0;0.0
64.98528265747588;454.90278321568326;1262.5238095238096;0.0;0.0
206.64567189588402;482.14047584038;1266.3968253968253;0.0;0.0
361.09678136321446;508.1125323768562;1278.063492063492;0.0;0.0
549.4547115505906;549.4547115505904;1293.2222222222222;0.0;0.0
-500.9311311765672;355.9932251746438;1260.0;0.0;0.0
-320.8657306173127;320.8657306173127;1246.7301587301588;0.0;0.0
-196.70241126104938;327.88607779424166;1242.888888888889;0.0;0.0
-65.63998615944337;328.19791944776415;1240.4444444444443;0.0;0.0
65.62318726858;328.11392550820136;1240.126984126984;0.0;0.0
196.07187429869194;326.8350266649428;1238.904761904762;0.0;0.0
320.8493899302778;320.84938993027777;1246.6666666666667;0.0;0.0
500.7544358922017;355.867654372113;1259.5555555555557;0.0;0.0
-468.2412354704658;200.68844986411605;1229.888888888889;0.0;0.0
-322.78994542628675;193.64518622842337;1223.5714285714287;0.0;0.0
-99.86699361014021;99.86699361014023;631.8412698412699;0.0;1.0
-34.39379000786346;103.09109122828556;649.4285714285714;0.0;1.0
36.08010625061105;108.14561361680637;681.2698412698413;0.0;1.0
183.9408222507826;183.94082225078256;1163.7619047619048;0.0;0.0
321.9608293960033;193.14779053700178;1220.4285714285713;0.0;0.0
467.7456973355384;200.47606194820094;1228.5873015873017;0.0;0.0
-435.08560995674935;62.154294030410625;1207.5238095238096;0.0;0.0
-315.49803578586574;63.09999386090531;1192.4444444444443;0.0;0.0
-103.60259075214883;34.5644391590488;652.6507936507936;0.0;1.0
-35.173200983610805;35.17320098361082;669.3650793650794;0.0;1.0
36.86888790795705;36.868887907957046;701.6349206349206;0.0;1.0
110.37303026259522;36.8232286626693;695.3015873015873;0.0;1.0
318.8451942774442;63.76942966180963;1205.095238095238;0.0;0.0
434.77105165105195;62.10935770299681;1206.6507936507937;0.0;0.0
-428.6686205205232;-61.2375929511701;1189.7142857142858;0.0;0.0
-314.2465260863798;-62.84969038704136;1187.7142857142858;0.0;0.0
-189.0986022999554;-63.08806649337968;1191.2380952380952;0.0;0.0
-62.77878393249789;-62.77878393249786;1194.7142857142858;0.0;0.0
52.148420011793085;-52.148420011793114;992.4126984126984;0.0;0.0
111.55729024395352;-37.218327682655094;702.7619047619048;0.0;1.0
181.76708491092137;-36.35363977282686;687.0;0.0;1.0
428.3540622148258;-61.19265662375632;1188.8412698412699;0.0;0.0
-447.4044612115682;-191.7577970095353;1175.1587301587301;0.0;0.0
-309.95539677568587;-185.94560140919637;1174.920634920635;0.0;0.0
-181.48215637785043;-181.48215637785034;1148.2063492063492;0.0;0.0
-62.37772889361827;-186.9694540355984;1177.8253968253969;0.0;0.0
61.29583008782733;-183.72659744834704;1157.3968253968253;0.0;0.0
109.96257674552692;-109.96257674552696;695.7142857142857;0.0;1.0
182.31759011370693;-109.3742980242502;691.0952380952381;0.0;1.0
448.30489026161905;-192.143721393333;1177.5238095238096;0.0;0.0
-516.0697782557445;-221.1877894859091;1151.1904761904761;0.0;0.0
-210.90924755946506;-210.909247559465;819.4920634920635;0.0;2.0
-123.92940224695872;-206.57970263624577;783.063492063492;0.0;2.0
-60.182866462485066;-300.912488180782;1137.3174603174602;0.0;0.0
59.89644537326489;-299.48039151123595;1131.904761904762;0.0;0.0
104.58874856890657;-174.34048891325207;660.8571428571429;0.0;1.0
174.1263610439032;-174.12636104390327;676.5714285714286;0.0;1.0
261.7046477831119;-185.98381256258062;658.2698412698413;0.0;1.0
-232.2771860030371;-232.27718600303703;546.6984126984127;0.0;3.0
-159.3672870975832;-224.25155804346798;564.063492063492;0.0;3.0
-92.7306361658052;-216.35678422768376;568.2857142857143;0.0;3.0
-29.099131584866125;-203.6965202857689;565.3333333333334;0.0;3.0
29.503558531589672;-206.52754503704517;573.1904761904761;0.0;3.0
98.73447993521285;-230.3648012613626;605.0793650793651;0.0;3.0
169.13490166586675;-237.99592694876623;598.6349206349206;0.0;3.0
242.7304012142532;-242.7304012142533;571.3015873015873;0.0;3.0
-555.9604148611962;511.9204148611963;1282.047619047619;1.0;0.0
-376.9670558563471;474.60942788999864;1276.904761904762;1.0;0.0
-229.95890106224013;453.87224063694845;1266.6825396825398;1.0;0.0
-92.39885168069095;428.9376273547109;1263.1587301587301;1.0;0.0
34.692520583242434;430.5733305443372;1262.5238095238096;1.0;0.0
173.84491911980373;458.13265996772645;1266.3968253968253;1.0;0.0
325.9872660537651;484.4033950805508;1278.063492063492;1.0;0.0
513.0663007555339;526.9663007555338;1293.2222222222222;1.0;0.0
-510.9063881072618;327.4243639025894;1260.0;1.0;0.0
-340.41940971345105;296.3794097134511;1246.7301587301588;1.0;0.0
-125.58785700890425;145.98369515522373;1242.888888888889;1.0;0.0
-61.720277682638795;148.68038487469641;1240.4444444444443;1.0;0.0
6.231235859601156;160.93510065691189;1240.126984126984;1.0;0.0
164.00445567483973;306.60189502181356;1238.904761904762;1.0;0.0
286.68305145317936;300.5830514531793;1246.6666666666667;1.0;0.0
464.05401720120517;335.30393176139313;1259.5555555555557;1.0;0.0
-482.63516252601653;179.3711370203665;1229.888888888889;1.0;0.0
-328.1636382007938;164.41950581852308;1223.5714285714287;1.0;0.0
-128.11946459008044;84.07946459008045;631.8412698412699;1.0;1.0
-63.04350761081121;87.06108473275893;649.4285714285714;1.0;1.0
7.191647963246403;93.32002471934203;681.2698412698413;1.0;1.0
78.63928226714904;92.53928226714902;1163.7619047619048;1.0;0.0
289.63667818258364;176.0655988762511;1220.4285714285713;1.0;0.0
435.13167909942604;183.84423373726352;1228.5873015873017;1.0;0.0
-452.53133748438233;45.437990398798284;1207.5238095238096;1.0;0.0
-340.3313342623969;47.20264848588547;1192.4444444444443;1.0;0.0
-216.94481516870894;47.64314274249966;652.6507936507936;1.0;1.0
-91.3851245625938;47.34512456259382;669.3650793650794;1.0;1.0
7.536896700300254;21.436896700300245;701.6349206349206;1.0;1.0
80.88649133455593;21.580898239058506;695.3015873015873;1.0;1.0
150.60484308833176;20.845188721293425;1205.095238095238;1.0;0.0
402.8213266098096;46.6136881287685;1206.6507936507937;1.0;0.0
-447.8301206246871;-74.90639655999632;1189.7142857142858;1.0;0.0
-337.236157589507;-76.72360935757104;1187.7142857142858;1.0;0.0
-214.6292089498403;-77.01059806299563;1191.2380952380952;1.0;0.0
-90.70201212233825;-76.80201212233823;1194.7142857142858;1.0;0.0
32.60020038435339;-76.64020038435342;992.4126984126984;1.0;0.0
81.6020867275469;-51.959638923475474;702.7619047619048;1.0;1.0
152.38551460706356;-51.341325207596455;687.0;1.0;1.0
398.40035260428124;-76.12212847257155;1188.8412698412699;1.0;0.0
-466.16758426166155;-202.45312396098925;1175.1587301587301;1.0;0.0
-321.36739922528795;-190.4823684085376;1174.920634920635;1.0;0.0
-194.29520921286772;-180.39520921286766;1148.2063492063492;1.0;0.0
-88.2205621822419;-192.6661622682517;1177.8253968253969;1.0;0.0
30.457936423128885;-193.197819408819;1157.3968253968253;1.0;0.0
96.58503429682628;-140.62503429682633;695.7142857142857;1.0;1.0
152.53941135691542;-123.9594628300868;691.0952380952381;1.0;1.0
223.79070770088532;-123.40337769596607;1177.5238095238096;1.0;0.0
-410.4880590273698;-178.58884896348158;1151.1904761904761;1.0;0.0
-203.63968888781372;-189.73968888781366;819.4920634920635;1.0;2.0
-140.17561852448398;-200.4402445888417;783.063492063492;1.0;2.0
-73.06288879357098;-235.53309286751272;1137.3174603174602;1.0;0.0
19.32261150940772;-256.5315777582178;1131.904761904762;1.0;0.0
73.71206508512408;-186.23221079716524;660.8571428571429;1.0;1.0
136.5652448353041;-180.60524483530418;676.5714285714286;1.0;1.0
220.7824739049509;-192.55984470567992;658.2698412698413;1.0;1.0
-251.70441211666878;-237.8044121166687;546.6984126984127;1.0;3.0
-177.50680537930694;-224.08158976693215;564.063492063492;1.0;3.0
-115.18395328235829;-216.22222389259485;568.2857142857143;1.0;3.0
-56.25452098148597;-206.06408397751719;565.3333333333334;1.0;3.0
-1.6879300909184884;-206.04692625175187;573.1904761904761;1.0;3.0
59.79260827334063;-222.16868151172343;605.0793650793651;1.0;3.0
125.81843747672991;-232.87849070999278;598.6349206349206;1.0;3.0
199.0786918498547;-243.11869184985477;571.3015873015873;1.0;3.0
-483.86589840947073;534.1658984094709;1282.047619047619;2.0;0.0
-311.32105296019955;500.2067420941375;1276.904761904762;2.0;0.0
-168.30571639514616;481.74204919519605;1266.6825396825398;2.0;0.0
-33.41927392567647;458.66049914467516;1263.1587301587301;2.0;0.0
92.24557419890448;463.46466235896213;1262.5238095238096;2.0;0.0
231.1493317037072;492.71640593944136;1266.3968253968253;2.0;0.0
385.26952006451563;522.4514162865966;1278.063492063492;2.0;0.0
579.9476976212788;572.1076976212787;1293.2222222222222;2.0;0.0
-440.4283021970953;354.8850763387292;1260.0;2.0;0.0
-123.0250297490982;173.3250297490982;1246.7301587301588;2.0;0.0
-68.14322457893908;183.2761219187449;1242.888888888889;2.0;0.0
-5.448360946006105;193.82074701368327;1240.4444444444443;2.0;0.0
92.89318611257234;340.3439748840452;1240.126984126984;2.0;0.0
221.88870550883905;342.6422728305127;1238.904761904762;2.0;0.0
347.2967096611762;339.4567096611762;1246.6666666666667;2.0;0.0
529.4710453234704;376.8465127670515;1259.5555555555557;2.0;0.0
-414.1888616925416;211.21099078614725;1229.888888888889;2.0;0.0
-135.06566181324723;119.69676220529949;1223.5714285714287;2.0;0.0
-73.34096013580674;123.64096013580676;631.8412698412699;2.0;1.0
-6.844500916702124;128.87923230547108;649.4285714285714;2.0;1.0
65.13161225393085;129.32018017087043;681.2698412698413;2.0;1.0
219.9251928077224;212.08519280772236;1163.7619047619048;2.0;0.0
351.76363396822353;214.81740794103592;1220.4285714285713;2.0;0.0
501.72877664890365;223.81181043160402;1228.5873015873017;2.0;0.0
-384.92304574926067;80.37110902128589;1207.5238095238096;2.0;0.0
-277.38188849495003;82.52075331492281;1192.4444444444443;2.0;0.0
-155.374712543426;82.76541140845713;652.6507936507936;2.0;1.0
-7.04904897781082;57.34904897781084;669.3650793650794;2.0;1.0
65.54853794209671;57.70853794209671;701.6349206349206;2.0;1.0
138.160501899805;57.62534483038688;695.3015873015873;2.0;1.0
348.7929309458756;85.17497807133161;1205.095238095238;2.0;0.0
469.8062209754583;84.1915138755882;1206.6507936507937;2.0;0.0
-382.5209641421171;-37.56795888467161;1189.7142857142858;2.0;0.0
-275.1896466723605;-39.62230226338937;1187.7142857142858;2.0;0.0
-155.392350458042;-40.31129586194622;1191.2380952380952;2.0;0.0
-30.319912327176297;-38.15991232717627;1194.7142857142858;2.0;0.0
65.83212552413198;-15.53212552413201;992.4126984126984;2.0;0.0
139.10287048071567;-15.479742773950054;702.7619047619048;2.0;1.0
296.5403011438451;-32.26438806524334;687.0;2.0;1.0
465.20795047035494;-41.07462647121258;1188.8412698412699;2.0;0.0
-399.0628622812827;-162.26797915766244;1175.1587301587301;2.0;0.0
-209.8996647283821;-122.13049150526912;1174.920634920635;2.0;0.0
-153.02431400335598;-160.86431400335593;1148.2063492063492;2.0;0.0
-30.70764108762711;-157.94601547742548;1177.8253968253969;2.0;0.0
65.24005432537368;-87.18522174022203;1157.3968253968253;2.0;0.0
138.7064271909543;-88.40642719095433;695.7142857142857;2.0;1.0
208.4940589171114;-86.40843730317812;691.0952380952381;2.0;1.0
484.6629267338436;-174.0373778152078;1177.5238095238096;2.0;0.0
-233.03865607790897;-91.10991348794843;1151.1904761904761;2.0;0.0
-130.70106748374292;-138.5410674837429;819.4920634920635;2.0;2.0
-64.98300346879643;-135.54830390815565;783.063492063492;2.0;2.0
-2.7470992951798934;-137.85452153198176;1137.3174603174602;2.0;0.0
62.26544829051748;-144.74622427311118;1131.904761904762;2.0;0.0
129.81272430847048;-146.6994957699992;660.8571428571429;2.0;1.0
187.7462414524045;-137.44624145240456;676.5714285714286;2.0;1.0
262.7747557570294;-144.85532503297753;658.2698412698413;2.0;1.0
-189.9484627093268;-197.78846270932675;546.6984126984127;2.0;3.0
-116.44862144705027;-183.5345923962868;564.063492063492;2.0;3.0
-55.7945129873361;-176.7737437914099;568.2857142857143;2.0;3.0
2.0420245968397346;-167.96824201408134;565.3333333333334;2.0;3.0
56.754045783400755;-172.56079327726286;573.1904761904761;2.0;3.0
118.45682153840846;-187.32508017657096;605.0793650793651;2.0;3.0
182.19013967167868;-194.23096764627797;598.6349206349206;2.0;3.0
278.69277924384215;-228.39277924384228;571.3015873015873;2.0;3.0
