x;y;z;c;clase
-542.9737181196365;542.9737181196366;1277.968253968254;0.0;0.0
-360.92187917397524;507.8664210879183;1277.4444444444443;0.0;0.0
-206.87878058408361;482.6843591592028;1267.8253968253969;0.0;0.0
-65.06535102268575;455.4632689240167;1264.079365079365;0.0;0.0
65.17401523261357;456.2239280996121;1266.1904761904761;0.0;0.0
206.92540232172354;482.7931358229673;1268.111111111111;0.0;0.0
361.09678136321446;508.1125323768562;1278.063492063492;0.0;0.0
550.0549284240088;550.0549284240087;1294.6349206349207;0.0;0.0
-501.3602482957409;356.29818283793276;1261.079365079365;0.0;0.0
-321.45808052232786;321.45808052232786;1249.031746031746;0.0;0.0
-196.88830662046954;328.1959494419234;1244.063492063492;0.0;0.0
-65.55935148329931;327.7947485378627;1238.920634920635;0.0;0.0
65.61982749040733;328.0971267202888;1240.063492063492;0.0;0.0
194.37620716884584;324.0084947435217;1228.1904761904761;0.0;0.0
321.2170553885631;321.21705538856304;1248.095238095238;0.0;0.0
501.139379190284;356.1412193347693;1260.5238095238096;0.0;0.0
-468.7972050852623;200.92673874538673;1231.3492063492063;0.0;0.0
-322.8736945202548;193.69542821745586;1223.888888888889;0.0;0.0
-192.97516491244448;192.9751649124445;1220.920634920635;0.0;0.0
-64.75168555838341;194.08509273210032;1222.6507936507937;0.0;0.0
64.65921557498253;193.8079255024207;1220.904761904762;0.0;0.0
192.81961666334064;192.8196166633406;1219.936507936508;0.0;0.0
322.4884486880019;193.46431506790637;1222.4285714285713;0.0;0.0
468.45878879799477;200.78169333939593;1230.4603174603174;0.0;0.0
-435.87486534195364;62.26704336101236;1209.7142857142858;0.0;0.0
-319.4037539755369;63.88114228605097;1207.2063492063492;0.0;0.0
-191.6913757485037;63.953081156284654;1207.5714285714287;0.0;0.0
-63.368479286906506;63.36847928690652;1205.936507936508;0.0;0.0
63.501932266687824;63.50193226668781;1208.4761904761904;0.0;0.0
191.33609775409616;63.83455145028891;1205.3333333333333;0.0;0.0
319.20636821756426;63.84166489252202;1206.4603174603174;0.0;0.0
435.80051519697065;62.25642204725995;1209.5079365079366;0.0;0.0
-429.23482547077833;-61.318478340514815;1191.2857142857142;0.0;0.0
-310.9203660796921;-62.18445430885281;1175.142857142857;0.0;0.0
-185.2812536366408;-61.814502631085276;1167.1904761904761;0.0;0.0
-62.54690938012786;-62.54690938012783;1190.3015873015872;0.0;0.0
62.683698684403666;-62.6836986844037;1192.904761904762;0.0;0.0
189.23466621270714;-63.133460848867564;1192.095238095238;0.0;0.0
314.939476087773;-62.9882812366641;1190.3333333333333;0.0;0.0
429.3949642445879;-61.34135501628905;1191.7301587301588;0.0;0.0
-447.8879130505218;-191.96500473237938;1176.4285714285713;0.0;0.0
-277.37699922212147;-166.40146767556294;1051.4285714285713;0.0;0.0
-157.50263758857946;-157.5026375885794;996.4920634920635;0.0;2.0
-60.898209159203645;-182.5347783607247;1149.888888888889;0.0;0.0
62.45254551655149;-187.19370752143013;1179.2380952380952;0.0;0.0
185.6117115072854;-185.61171150728546;1174.3333333333333;0.0;0.0
306.7603688408055;-184.02886952760738;1162.8095238095239;0.0;0.0
448.7037380287557;-192.3146677646794;1178.5714285714287;0.0;0.0
-520.374807085041;-223.03292719895944;1160.7936507936508;0.0;0.0
-242.7572465904868;-242.75724659048672;943.2380952380952;0.0;2.0
-147.51299189880328;-245.89152734483991;932.0793650793651;0.0;2.0
-59.94348226768236;-299.71557454201184;1132.7936507936508;0.0;0.0
61.385667048300625;-306.92645425347996;1160.047619047619;0.0;0.0
131.54357568483027;-219.27187782710118;831.1746031746031;0.0;1.0
197.56707659546845;-197.56707659546854;767.6507936507936;0.0;1.0
321.0868844217047;-228.18457155594666;807.6349206349206;0.0;1.0
-233.76086816204844;-233.76086816204835;550.1904761904761;0.0;3.0
-160.07586519757805;-225.24862429095973;566.5714285714286;0.0;3.0
-99.26026953192984;-231.59156030270722;608.3015873015873;0.0;3.0
-28.889973406358553;-202.23239435379577;561.2698412698413;0.0;3.0
29.34015370463063;-205.3836966526911;570.015873015873;0.0;3.0
104.81602660068715;-244.5541127346491;642.3492063492064;0.0;3.0
180.8668023594529;-254.50431494521243;640.1587301587301;0.0;3.0
241.63112761462205;-241.63112761462216;568.7142857142857;0.0;3.0
-555.0702055657895;511.0302055657896;1277.968253968254;1.0;0.0
-376.20017702660584;473.53032454619427;1277.4444444444443;1.0;0.0
-229.59369745072738;453.02015677079277;1267.8253968253969;1.0;0.0
-92.33675784644652;428.5029649686564;1264.079365079365;1.0;0.0
34.564247794079584;429.6754095626192;1266.1904761904761;1.0;0.0
173.4615848325422;457.2382740656625;1268.111111111111;1.0;0.0
324.5880485398511;482.43450476904803;1278.063492063492;1.0;0.0
513.2686210499445;527.1686210499444;1294.6349206349207;1.0;0.0
-509.71369493779366;326.5767609855069;1261.079365079365;1.0;0.0
-339.82705980843593;295.78705980843597;1249.031746031746;1.0;0.0
-220.14579246747695;303.6036774577582;1244.063492063492;1.0;0.0
-92.91329818224528;304.64453155191933;1238.920634920635;1.0;0.0
35.16060581537158;305.5810639780448;1240.063492063492;1.0;0.0
163.3462856185143;305.5047818908324;1228.1904761904761;1.0;0.0
285.9926574259548;299.8926574259548;1248.095238095238;1.0;0.0
462.8739451234776;334.4652981873486;1260.5238095238096;1.0;0.0
-481.86768273167786;179.0421947603515;1231.3492063492063;1.0;0.0
-342.4135465394544;172.96818025239898;1223.888888888889;1.0;0.0
-217.58981393753606;173.5498139375361;1220.920634920635;1.0;0.0
-92.26234109307444;174.64088990733856;1222.6507936507937;1.0;0.0
34.52325314791828;175.24309870636966;1220.904761904762;1.0;0.0
160.74617820944565;174.64617820944562;1219.936507936508;1.0;0.0
288.87456142747453;175.60839677605557;1222.4285714285713;1.0;0.0
433.3429072952979;183.07756516274034;1230.4603174603174;1.0;0.0
-451.81071300223925;45.335045357814074;1209.7142857142858;1.0;0.0
-339.55019062446263;47.04641880085634;1207.2063492063492;1.0;0.0
-216.16622722351806;47.38338615276437;1207.5714285714287;1.0;0.0
-91.29003931449961;47.25003931449963;1205.936507936508;1.0;0.0
33.42343845337935;47.32343845337933;1208.4761904761904;1.0;0.0
159.44324333202033;47.78941344351565;1205.3333333333333;1.0;0.0
286.0660691182703;47.937599961156835;1206.4603174603174;1.0;0.0
401.76326685428216;46.46253866383139;1209.5079365079366;1.0;0.0
-446.9893920621869;-74.78629401218143;1191.2857142857142;1.0;0.0
-314.4402023921575;-72.16439037725857;1175.142857142857;1.0;0.0
-195.83223137338697;-70.73945191598821;1167.1904761904761;1.0;0.0
-89.46924022160842;-75.5692402216084;1190.3015873015872;1.0;0.0
32.70612868705479;-76.74612868705483;1192.904761904762;1.0;0.0
156.49771159115247;-76.94670971082786;1192.095238095238;1.0;0.0
282.7105112327356;-77.40648427116622;1190.3333333333333;1.0;0.0
397.08492696227415;-75.93421292156864;1191.7301587301588;1.0;0.0
-465.39406131933583;-202.12159160443866;1176.4285714285713;1.0;0.0
-279.49703969597044;-165.3638859917509;1051.4285714285713;1.0;0.0
-179.22709979161206;-165.327099791612;996.4920634920635;1.0;2.0
-88.34749825036496;-193.04663728353916;1149.888888888889;1.0;0.0
32.35525235527309;-198.88478702142692;1179.2380952380952;1.0;0.0
153.6787682461294;-197.71876824612949;1174.3333333333333;1.0;0.0
276.08607477855605;-198.07644505079645;1162.8095238095239;1.0;0.0
416.86324273496905;-206.15437191029253;1178.5714285714287;1.0;0.0
-438.2039057878817;-190.4678760582436;1160.7936507936508;1.0;0.0
-257.81723675202744;-243.91723675202738;943.2380952380952;1.0;2.0
-170.3082514467119;-250.66876369616878;932.0793650793651;1.0;2.0
-84.14847687429389;-290.96069358501785;1132.7936507936508;1.0;0.0
26.932509070504054;-294.58083238017537;1160.047619047619;1.0;0.0
88.60379063435015;-211.05544224928988;831.1746031746031;1.0;2.0
158.72321645462964;-202.7632164546297;767.6507936507936;1.0;1.0
251.80511740285974;-214.60648989286244;807.6349206349206;1.0;1.0
-251.0704751941821;-237.17047519418205;550.1904761904761;1.0;3.0
-176.82961997994477;-223.12869734053183;566.5714285714286;1.0;3.0
-114.81097938123891;-215.35201058247844;608.3015873015873;1.0;3.0
-55.93343049651145;-203.8164219022615;561.2698412698413;1.0;3.0
-1.943658645109391;-204.2568035302378;570.015873015873;1.0;3.0
57.73607162411295;-217.3704220101095;642.3492063492064;1.0;3.0
120.70591194512127;-225.68446841796344;640.1587301587301;1.0;3.0
196.4755040617712;-240.51550406177128;568.7142857142857;1.0;3.0
-484.0344986548129;534.334498654813;1277.968253968254;2.0;0.0
-311.25378288741524;500.11208390608454;1277.4444444444443;2.0;0.0
-168.2435540782929;481.59701364350997;1267.8253968253969;2.0;0.0
-33.424176070485245;458.6948145962058;1264.079365079365;2.0;0.0
92.2096251369735;463.21301571440426;1266.1904761904761;2.0;0.0
231.21667421363153;492.87352778710135;1268.111111111111;2.0;0.0
385.3233361227431;522.5271428370389;1278.063492063492;2.0;0.0
579.3609687674879;571.5209687674877;1294.6349206349207;2.0;0.0
-440.15063817880645;354.6877507918952;1261.079365079365;2.0;0.0
-274.38472858162584;324.6847285816259;1249.031746031746;2.0;0.0
-159.01591014197962;334.7531081787242;1244.063492063492;2.0;0.0
-34.2760976120533;337.9585470004611;1238.920634920635;2.0;0.0
92.86966766536366;340.2263833686573;1240.063492063492;2.0;0.0
222.11981865838845;343.0275186627657;1228.1904761904761;2.0;0.0
347.6398640889092;339.79986408890915;1248.095238095238;2.0;0.0
529.77395152524;377.06177699996135;1260.5238095238096;2.0;0.0
-413.3730367143075;210.86132775384783;1231.3492063492063;2.0;0.0
-278.8963557939451;205.98235416967498;1223.888888888889;2.0;0.0
-156.83775494912825;207.13775494912827;1220.920634920635;2.0;0.0
-33.792775988366564;209.65332214037232;1222.6507936507937;2.0;0.0
92.42370753660417;211.12482815976222;1220.904761904762;2.0;0.0
220.1936389795629;212.35363897956287;1219.936507936508;2.0;0.0
351.74688414943;214.80735954322947;1222.4285714285713;2.0;0.0
501.4930938774139;223.71079666671758;1230.4603174603174;2.0;0.0
-384.7800647012164;80.35068341791602;1209.7142857142858;2.0;0.0
-275.45842727896144;82.13605871415216;1207.2063492063492;2.0;0.0
-156.4002312932405;83.10755034704049;1207.5714285714287;2.0;0.0
-33.051528007074914;83.35152800707493;1205.936507936508;2.0;0.0
91.66194976080405;83.82194976080402;1208.4761904761904;2.0;0.0
219.63254921308126;84.80647613297909;1205.3333333333333;2.0;0.0
348.87692488543854;85.19177696219496;1206.4603174603174;2.0;0.0
470.34954895802656;84.26913116839376;1209.5079365079366;2.0;0.0
-358.8833372794408;-34.19119813556304;1191.2857142857142;2.0;0.0
-233.87302780140914;-31.358927847708824;1175.142857142857;2.0;0.0
-150.6653893409607;-38.73426232685428;1167.1904761904761;2.0;0.0
-32.60112420031304;-40.44112420031301;1190.3015873015872;2.0;0.0
91.17484638460223;-40.87484638460228;1192.904761904762;2.0;0.0
216.54843385737362;-41.31753740859085;1192.095238095238;2.0;0.0
347.3776330642421;-42.431916760284324;1190.3333333333333;2.0;0.0
465.32233530879046;-41.090966953908506;1191.7301587301588;2.0;0.0
-348.87451824991814;-140.75722742990948;1176.4285714285713;2.0;0.0
-213.6976861398323;-124.40896570789191;1051.4285714285713;2.0;0.0
-146.56404398009036;-154.4040439800903;996.4920634920635;2.0;2.0
-32.63353865100433;-163.7186529610253;1149.888888888889;2.0;0.0
88.64756966899583;-157.34632638048237;1179.2380952380952;2.0;0.0
193.26622998550084;-142.96622998550092;1174.3333333333333;2.0;0.0
334.64950661585624;-162.09045748224946;1162.8095238095239;2.0;0.0
484.80191913754277;-174.09695003552548;1178.5714285714287;2.0;0.0
-310.70706875852187;-124.39863768289776;1160.7936507936508;2.0;0.0
-196.05156010807008;-203.89156010807;943.2380952380952;2.0;2.0
-93.87214716247055;-183.70403293977395;932.0793650793651;2.0;2.0
-3.516488496721202;-141.70144396395892;1132.7936507936508;2.0;0.0
66.70035547844117;-166.9206243176957;1160.047619047619;2.0;0.0
143.25999267301285;-169.11494077054297;831.1746031746031;2.0;1.0
200.45112562203985;-150.15112562203996;767.6507936507936;2.0;1.0
254.6215304927295;-139.06112943048774;807.6349206349206;2.0;1.0
-189.5505661303192;-197.39056613031914;550.1904761904761;2.0;3.0
-116.47552947616401;-183.572455671508;566.5714285714286;2.0;3.0
-55.59248545756309;-176.30237824843022;608.3015873015873;2.0;3.0
2.0575480554008365;-167.85957641756772;561.2698412698413;2.0;3.0
56.437857443235;-170.34744665353776;570.015873015873;2.0;3.0
116.75512811455133;-183.35473194916503;642.3492063492064;2.0;3.0
181.98832945332566;-193.94699308211887;640.1587301587301;2.0;3.0
280.3315736285683;-230.03157362856845;568.7142857142857;2.0;3.0
