x;y;z;c;clase
-547.7215010284726;547.7215010284727;1289.142857142857;0.0;0.0
-361.6035492448565;508.825624060189;1279.857142857143;0.0;0.0
-207.29578612630735;483.6573059850968;1270.3809523809523;0.0;0.0
-65.14541938789569;456.02375463235023;1265.6349206349207;0.0;0.0
65.0996660363472;455.7034770847311;1264.7460317460318;0.0;0.0
207.06008734157223;483.10737951828713;1268.936507936508;0.0;0.0
361.58561055878056;508.8003818767082;1279.7936507936508;0.0;0.0
550.7697934642597;550.7697934642596;1296.3174603174602;0.0;0.0
-501.96606069928026;356.72871130375245;1262.6031746031747;0.0;0.0
-321.62148739267684;321.6214873926769;1249.6666666666667;0.0;0.0
-195.47399462920532;325.8384124467233;1235.126984126984;0.0;0.0
-65.65426521667723;328.2693142963927;1240.7142857142858;0.0;0.0
65.69626244383556;328.4792991452997;1241.5079365079366;0.0;0.0
196.36327783508028;327.32077140995733;1240.7460317460318;0.0;0.0
321.34778088484234;321.3477808848423;1248.6031746031747;0.0;0.0
501.27190065355813;356.23539743666726;1260.857142857143;0.0;0.0
-469.5284259916796;201.24014042618847;1233.2698412698412;0.0;0.0
-326.0477851816432;195.5995996017867;1235.920634920635;0.0;0.0
-159.42441111783046;159.4244111178305;1008.6507936507936;0.0;2.0
-65.17284430096394;195.34746347818657;1230.6031746031747;0.0;0.0
64.78783291553106;194.1934399218841;1223.3333333333333;0.0;0.0
193.22354034246518;193.22354034246516;1222.4920634920634;0.0;0.0
322.4716988692083;193.45426667009988;1222.3650793650793;0.0;0.0
468.71260101344546;200.8904773938891;1231.126984126984;0.0;0.0
-437.133098564743;62.446788670667296;1213.2063492063492;0.0;0.0
-306.1621094034583;61.232797141444266;1157.1587301587301;0.0;0.0
-124.27170697998346;41.46017801211876;782.8571428571429;0.0;2.0
-63.01983337722783;63.01983337722785;1199.3015873015872;0.0;0.0
63.61703546174921;63.6170354617492;1210.6666666666667;0.0;0.0
191.79972293828752;63.989228513432266;1208.2539682539682;0.0;0.0
319.68933337005046;63.938258514986266;1208.2857142857142;0.0;0.0
435.77763822928347;62.25315395072075;1209.4444444444443;0.0;0.0
-431.06498288574477;-61.579926063649275;1196.3650793650793;0.0;0.0
-265.3914511396653;-53.07861551637539;1003.063492063492;0.0;2.0
-125.63486580958954;-41.914962203208674;791.4444444444445;0.0;2.0
-61.476783298506504;-61.476783298506476;1169.936507936508;0.0;0.0
62.83466736778128;-62.83466736778131;1195.7777777777778;0.0;0.0
189.51687284656273;-63.22761210469394;1193.873015873016;0.0;0.0
314.9058785119479;-62.98156168031876;1190.2063492063492;0.0;0.0
429.4635951476492;-61.35115930590659;1191.920634920635;0.0;0.0
-449.98488540198275;-192.86376823021567;1181.936507936508;0.0;0.0
-181.98678119253321;-109.17584216757194;689.8412698412699;0.0;2.0
-110.50197793193554;-110.50197793193551;699.1269841269841;0.0;2.0
-62.30375290689752;-186.74772025185467;1176.4285714285713;0.0;0.0
62.41387625076567;-187.07780122538233;1178.5079365079366;0.0;0.0
185.93535221913055;-185.9353522191306;1176.3809523809523;0.0;0.0
308.2008532570556;-184.89303173896593;1168.2698412698412;0.0;0.0
448.85481672842866;-192.37942017806816;1178.968253968254;0.0;0.0
-512.1205369330014;-219.49514249294558;1142.3809523809523;0.0;0.0
-182.73790311129602;-182.73790311129596;710.031746031746;0.0;2.0
-109.54763288641225;-182.60652448789665;692.1904761904761;0.0;2.0
-60.38613304193157;-301.9288148494922;1141.1587301587301;0.0;0.0
60.860701708821026;-304.30164364214187;1150.126984126984;0.0;0.0
182.2402547180508;-303.7789010955438;1151.5079365079366;0.0;0.0
254.55113745792636;-254.55113745792647;989.063492063492;0.0;1.0
454.2457128288192;-322.815625277415;1142.5714285714287;0.0;0.0
-235.1231581444134;-235.1231581444133;553.3968253968254;0.0;3.0
-161.3988432956698;-227.11023532266913;571.2539682539683;0.0;3.0
-95.13165565426117;-221.95878241155785;583.0;0.0;3.0
-29.33770263222632;-205.3665389269258;569.968253968254;0.0;3.0
28.91693520280672;-202.42112933721418;561.7936507936508;0.0;3.0
90.87094685327934;-212.0178039730757;556.8888888888889;0.0;3.0
159.62291337416335;-224.6112591580696;564.968253968254;0.0;3.0
234.5971253789456;-234.59712537894572;552.1587301587301;0.0;3.0
-556.0480869887743;512.0080869887743;1289.142857142857;1.0;0.0
-376.8100923531837;474.3885587845416;1279.857142857143;1.0;0.0
-229.8423467181403;453.600298977537;1270.3809523809523;1.0;0.0
-92.30080878451552;428.2513183240984;1265.6349206349207;1.0;0.0
34.60264792841496;429.9442139329425;1264.7460317460318;1.0;0.0
173.56259859742866;457.47395683715223;1268.936507936508;1.0;0.0
325.4311667854147;483.62088739264584;1279.7936507936508;1.0;0.0
513.1876929321802;527.0876929321802;1296.3174603174602;1.0;0.0
-509.89039022215945;326.70233178803767;1262.6031746031747;1.0;0.0
-340.84426757635856;296.80426757635854;1249.6666666666667;1.0;0.0
-214.30264914299988;293.863657829276;1235.126984126984;1.0;0.0
-93.18544021423153;306.0052333728371;1240.7142857142858;1.0;0.0
35.280717885044524;306.181620645919;1241.5079365079366;1.0;0.0
163.67034644777377;306.04496354692617;1240.7460317460318;1.0;0.0
286.49513355227793;300.39513355227797;1248.6031746031747;1.0;0.0
463.7069371783442;335.0572748278506;1260.857142857143;1.0;0.0
-483.6141524998975;179.79073265912578;1233.2698412698412;1.0;0.0
-336.32079995328;169.3130755502863;1235.920634920635;1.0;0.0
-148.2253302081195;104.1853302081195;1008.6507936507936;1.0;2.0
-92.99201332572892;176.82799131971942;1230.6031746031747;1.0;0.0
34.657754941955965;175.64625104044904;1223.3333333333333;1.0;0.0
161.18773452948244;175.0877345294824;1222.4920634920634;1.0;0.0
289.22212016744186;175.81690103054032;1222.3650793650793;1.0;0.0
434.15268912554507;183.4246380985042;1231.126984126984;1.0;0.0
-454.16132143208677;45.6708422772149;1213.2063492063492;1.0;0.0
-309.98852359532805;41.13404916150123;1157.1587301587301;1.0;0.0
-151.01429033419464;25.647055600060504;782.8571428571429;1.0;2.0
-91.84970774845748;47.80970774845749;1199.3015873015872;1.0;0.0
33.59108875922962;47.491088759229605;1210.6666666666667;1.0;0.0
159.57174813850818;47.83228589036517;1208.2539682539682;1.0;0.0
286.43564245234666;48.011515080955554;1208.2857142857142;1.0;0.0
402.38666422375513;46.55159429452407;1209.4444444444443;1.0;0.0
-448.9625305251976;-75.06816733868577;1196.3650793650793;1.0;0.0
-213.22330552198088;-51.92088694238187;1003.063492063492;1.0;2.0
-139.37830609182717;-51.90499756964757;791.4444444444445;1.0;2.0
-89.80287267106169;-75.90287267106166;1169.936507936508;1.0;0.0
32.805384340767155;-76.84538434076718;1195.7777777777778;1.0;0.0
157.30905566348733;-77.21739457132871;1193.873015873016;1.0;0.0
282.1813494134898;-77.30065125872713;1190.2063492063492;1.0;0.0
397.42808147758035;-75.98323436965636;1191.920634920635;1.0;0.0
-467.8113205141036;-203.15763021865922;1181.936507936508;1.0;0.0
-208.74161765707876;-122.91694155766294;689.8412698412699;1.0;2.0
-137.33946161357602;-123.43946161357599;699.1269841269841;1.0;2.0
-78.24473224570878;-162.7648575899982;1176.4285714285713;1.0;0.0
32.00554769077508;-197.8365909528204;1178.5079365079366;1.0;0.0
154.13788646525853;-198.1778864652586;1176.3809523809523;1.0;0.0
278.1421150354712;-199.30988588154375;1168.2698412698412;1.0;0.0
416.94784680678583;-206.19063326179025;1178.968253968254;1.0;0.0
-453.33199056653336;-196.9517814763345;1142.3809523809523;1.0;0.0
-204.36684946086683;-190.46684946086677;710.031746031746;1.0;2.0
-137.09076039788988;-195.2980502192045;692.1904761904761;1.0;2.0
-72.32205770649736;-231.82896013279233;1141.1587301587301;1.0;0.0
30.551830107012243;-312.677326658985;1150.126984126984;1.0;0.0
128.48085732942684;-277.52709813171685;1151.5079365079366;1.0;0.0
149.71132755488182;-193.7513275548819;989.063492063492;1.0;1.0
226.79642411925263;-196.83373666324403;1142.5714285714287;1.0;0.0
-251.0367551451137;-237.13675514511363;553.3968253968254;1.0;3.0
-176.78477326475522;-223.0655918818298;571.2539682539683;1.0;3.0
-115.03372768329632;-215.87172130935352;583.0;1.0;3.0
-56.045362802978396;-204.59995804554404;569.968253968254;1.0;3.0
-1.964901272614064;-204.1081032402718;561.7936507936508;1.0;3.0
56.65082117571697;-214.83834300359032;556.8888888888889;1.0;3.0
120.41440829638918;-225.27428293640037;564.968253968254;1.0;3.0
196.67108034636814;-240.71108034636825;552.1587301587301;1.0;3.0
-483.81194633096123;534.1119463309612;1289.142857142857;2.0;0.0
-311.0654266836191;499.847040979536;1279.857142857143;2.0;0.0
-168.17103137529747;481.42780549987623;1270.3809523809523;2.0;0.0
-33.295903281322396;457.79689361448783;1265.6349206349207;2.0;0.0
92.10341199945012;462.4695142645741;1264.7460317460318;2.0;0.0
230.75045683723232;491.7857611494558;1268.936507936508;2.0;0.0
385.41302955312216;522.653353754443;1279.7936507936508;2.0;0.0
579.0440003062446;571.2040003062444;1296.3174603174602;2.0;0.0
-440.95207750432195;355.25730407480245;1262.6031746031747;2.0;0.0
-241.3111780229866;291.6111780229866;1249.6666666666667;2.0;0.0
-159.39021296027158;335.377038928786;1235.126984126984;2.0;0.0
-34.09550953527232;337.05561215016087;1240.7142857142858;2.0;0.0
92.81843104823045;339.9702018529907;1241.5079365079366;2.0;0.0
221.51440269054712;342.0183420804509;1240.7460317460318;2.0;0.0
346.97398109223695;339.1339810922369;1248.6031746031747;2.0;0.0
528.3540787044449;376.0527259081965;1260.857142857143;2.0;0.0
-414.09821447273777;211.172139338114;1233.2698412698412;2.0;0.0
-157.98778883229753;133.44799460348835;1235.920634920635;2.0;0.0
-157.9215750074004;208.22157500740042;1008.6507936507936;2.0;2.0
-33.83144525415241;209.7692284364202;1230.6031746031747;2.0;0.0
92.3959665415839;211.04167799085835;1223.3333333333333;2.0;0.0
219.46356574586574;211.6235657458657;1222.4920634920634;2.0;0.0
351.58357341619234;214.70938766461614;1222.3650793650793;2.0;0.0
500.9431674106042;223.47509788198238;1231.126984126984;2.0;0.0
-376.84747615572115;79.21747094295506;1213.2063492063492;2.0;0.0
-192.76639377936482;65.5975506591867;1157.1587301587301;2.0;0.0
-155.63424185848964;82.8519969383689;782.8571428571429;2.0;2.0
-32.89305259358461;83.19305259358462;1199.3015873015872;2.0;0.0
91.60439816327334;83.76439816327334;1210.6666666666667;2.0;0.0
219.4612094710975;84.74931287051308;1208.2539682539682;2.0;0.0
348.59554518790304;85.13550067780275;1208.2857142857142;2.0;0.0
469.4973819116827;84.14739457230927;1209.4444444444443;2.0;0.0
-340.71902493589846;-31.59632948345347;1196.3650793650793;2.0;0.0
-160.43292674465712;-16.670817621341076;1003.063492063492;2.0;2.0
-155.9668425341052;-40.50296091844994;791.4444444444445;2.0;2.0
-32.590281145705795;-40.43028114570578;1169.936507936508;2.0;0.0
91.18402127696221;-40.884021276962244;1195.7777777777778;2.0;0.0
218.18875991665928;-41.86479158308171;1193.873015873016;2.0;0.0
346.87786912384337;-42.33196335964742;1190.2063492063492;2.0;0.0
464.8762344388924;-41.027239071394476;1191.920634920635;2.0;0.0
-367.98899533254377;-148.949702771858;1181.936507936508;2.0;0.0
-151.714981694092;-87.2248696249559;689.8412698412699;2.0;2.0
-154.11315174708312;-161.95315174708304;699.1269841269841;2.0;2.0
-32.643626285557154;-163.74888938608123;1176.4285714285713;2.0;0.0
90.40702126225139;-162.62006285065888;1178.5079365079366;2.0;0.0
215.75298735192013;-165.4529873519202;1176.3809523809523;2.0;0.0
343.49341093888034;-167.39601152407897;1168.2698412698412;2.0;0.0
483.48451287639443;-173.53230899077533;1178.968253968254;2.0;0.0
-235.4224323718169;-92.13160131253004;1142.3809523809523;2.0;0.0
-134.41040344066542;-142.25040344066537;710.031746031746;2.0;2.0
-67.13587269883806;-139.13695258468582;692.1904761904761;2.0;2.0
-1.496421870403676;-131.60117273152977;1141.1587301587301;2.0;0.0
59.49195140897884;-130.87882485128952;1150.126984126984;2.0;0.0
124.75084391344845;-138.26177455272;1151.5079365079366;2.0;0.0
177.65586720835324;-127.3558672083533;989.063492063492;2.0;1.0
253.83902280482457;-138.50503016213733;1142.5714285714287;2.0;0.0
-188.9908133157831;-196.83081331578305;553.3968253968254;2.0;3.0
-116.11675575464764;-183.06761200189197;571.2539682539683;2.0;3.0
-55.31275503172356;-175.64971826584292;583.0;2.0;3.0
2.2103315686075398;-166.7900781781967;569.968253968254;2.0;3.0
56.14046065816956;-168.26564259401343;561.7936507936508;2.0;3.0
115.73981027261524;-180.98581793829266;556.8888888888889;2.0;3.0
180.9120082887765;-192.4324620732706;564.968253968254;2.0;3.0
276.70329634880426;-226.4032963488044;552.1587301587301;2.0;3.0
