x;y;z;c;clase
-747.7431256326121;747.7431256326122;1759.923076923077;0.0;3.0
-498.8758946927451;701.9865788809922;1765.7179487179487;0.0;3.0
-303.6121120882907;708.380131314364;1860.6410256410256;0.0;0.0
-95.12385748583246;665.8754990510027;1848.051282051282;0.0;0.0
91.64484302385381;641.5220870647325;1780.4615384615386;0.0;0.0
274.8470976790439;641.266324344251;1684.3589743589744;0.0;4.0
479.22889374293555;674.3405628502462;1696.179487179487;0.0;4.0
726.9461556771558;726.9461556771557;1710.974358974359;0.0;4.0
-691.456219530048;491.3923578265382;1739.2307692307693;0.0;3.0
-452.0267690547957;452.02676905479575;1756.3589743589744;0.0;3.0
-293.1017156176623;488.57546439070444;1852.0;0.0;0.0
-97.8331221654874;489.16261301149837;1848.820512820513;0.0;0.0
97.40300594826694;487.0120451050764;1840.6923076923076;0.0;0.0
290.2408208191017;483.8065977130247;1833.923076923077;0.0;0.0
473.4475242936621;473.44752429366207;1839.5897435897436;0.0;0.0
729.6529828291648;518.537384581308;1835.3076923076924;0.0;0.0
-654.1716992990858;280.37834844981086;1718.2564102564102;0.0;3.0
-465.0017049982026;278.9595618971172;1762.6410256410256;0.0;3.0
-291.5829124612909;291.58291246129096;1844.7948717948718;0.0;0.0
-97.91775870970858;293.49625597248587;1848.8974358974358;0.0;0.0
97.92047461131902;293.50439654846247;1848.948717948718;0.0;0.0
292.11382218000654;292.1138221800065;1848.1538461538462;0.0;0.0
488.48076349214045;293.04490352237195;1851.6410256410256;0.0;0.0
708.3703693060774;303.6079280861947;1860.6153846153845;0.0;0.0
-616.54043835044;88.07608160306853;1711.128205128205;0.0;3.0
-467.4194895412075;93.4844708210352;1766.6410256410256;0.0;3.0
-292.6740577988489;97.64345264706063;1843.7179487179487;0.0;0.0
-97.12053435601925;97.12053435601928;1848.2564102564102;0.0;0.0
97.19329189403467;97.19329189403464;1849.6410256410256;0.0;0.0
293.09736774963227;97.78467953080019;1846.3846153846155;0.0;0.0
488.67415594757915;97.73543015400513;1846.974358974359;0.0;0.0
666.4575419019645;95.20700540355064;1849.6666666666667;0.0;0.0
-613.8057608284613;-87.68541837061525;1703.5384615384614;0.0;3.0
-467.32451177877874;-93.46547515213575;1766.2820512820513;0.0;3.0
-292.35657533576136;-97.53753248425585;1841.7179487179487;0.0;0.0
-97.0962818433475;-97.09628184334746;1847.7948717948718;0.0;0.0
96.98445081269416;-96.98445081269422;1845.6666666666667;0.0;0.0
292.55194915919975;-97.60271412290513;1842.948717948718;0.0;0.0
486.1029722361157;-97.22119026023076;1837.2564102564102;0.0;0.0
663.5658051979801;-94.79390543139569;1841.6410256410256;0.0;0.0
-646.9673371836034;-277.2905549030435;1699.3333333333333;0.0;3.0
-273.3812011041467;-164.00434508345575;1036.2820512820513;0.0;1.0
-159.70655943072117;-159.70655943072111;1010.4358974358975;0.0;1.0
-69.22697409769154;-207.49921135564307;1307.1538461538462;0.0;1.0
97.29310133932184;-291.62392349786705;1837.1025641025642;0.0;0.0
128.4355717237796;-128.43557172377962;812.5897435897435;0.0;2.0
207.28673825647587;-124.35356057744443;785.7435897435897;0.0;2.0
294.51979000557236;-126.2313432330152;773.5897435897435;0.0;2.0
-760.935877035285;-326.1375334762354;1697.4102564102564;0.0;3.0
-253.98706951124097;-253.9870695112409;986.8717948717949;0.0;1.0
-157.6900864925895;-262.8558726637644;996.3846153846154;0.0;1.0
-52.68720135925948;-263.4343923478516;995.6666666666666;0.0;1.0
94.29450041624192;-471.4696126962039;1781.948717948718;0.0;0.0
125.29501815654504;-208.85606743267704;791.6923076923077;0.0;2.0
199.37932163643524;-199.37932163643532;774.6923076923077;0.0;2.0
303.871715287796;-215.9503876522376;764.3333333333334;0.0;2.0
-724.3642374584848;-724.3642374584846;1704.8974358974358;0.0;3.0
-276.93433086591614;-389.6844597372126;980.1794871794872;0.0;1.0
-161.77862503970013;-377.4578124082023;991.4358974358975;0.0;1.0
-50.87860679411234;-356.1547921360845;988.4615384615385;0.0;1.0
85.41006900322122;-597.8781120180174;1659.3333333333333;0.0;0.0
128.896552568097;-300.7381892841124;789.9230769230769;0.0;2.0
218.26137338342815;-307.1235881173713;772.5128205128206;0.0;2.0
325.953557395104;-325.9535573951041;767.1794871794872;0.0;2.0
-758.7190699097216;714.6790699097216;1759.923076923077;1.0;3.0
-521.1245794973944;677.4587696146795;1765.7179487179487;1.0;3.0
-327.4462495155851;681.3272661426092;1860.6410256410256;1.0;0.0
-122.9073498980787;642.4998399555334;1848.051282051282;1.0;0.0
63.7381370872794;633.8952404842302;1780.4615384615386;1.0;0.0
257.9168625672612;654.2872004751389;1684.3589743589744;1.0;4.0
468.85544663311293;685.4384548675489;1696.179487179487;1.0;4.0
713.4038562809452;727.3038562809451;1710.974358974359;1.0;4.0
-703.9396757308448;464.6059809959023;1739.2307692307693;1.0;3.0
-478.6922608169025;434.6522608169026;1756.3589743589744;1.0;3.0
-317.56500920144924;465.993170661772;1852.0;1.0;0.0
-125.71019278702988;468.62799960890266;1848.820512820513;1.0;0.0
67.92768238887372;469.4154427923041;1840.6923076923076;1.0;0.0
261.56560602782884;469.2279794162871;1833.923076923077;1.0;0.0
445.8821948907007;459.7821948907007;1839.5897435897436;1.0;0.0
710.3956410633124;510.3698115110779;1835.3076923076924;1.0;0.0
-672.7012314366079;260.833558208256;1718.2564102564102;1.0;3.0
-491.44715298291635;262.37505578541715;1762.6410256410256;1.0;3.0
-317.37150689494194;273.3315068949419;1844.7948717948718;1.0;0.0
-125.96638908838837;275.66456557242304;1848.8974358974358;1.0;0.0
68.16383310917067;276.0765368638104;1848.948717948718;1.0;0.0
261.0196043414379;274.9196043414379;1848.1538461538462;1.0;0.0
455.35310414447747;275.48067862453854;1851.6410256410256;1.0;0.0
674.0445131882858;286.2424052220137;1860.6153846153845;1.0;0.0
-636.2591246002904;71.68448221702693;1711.128205128205;1.0;3.0
-493.3787913883009;77.81232750026226;1766.6410256410256;1.0;3.0
-319.1565303682837;81.74355071211843;1843.7179487179487;1.0;0.0
-125.36517249884734;81.32517249884737;1848.2564102564102;1.0;0.0
67.52526223368335;81.42526223368333;1849.6410256410256;1.0;0.0
262.0253547385306;82.01339493640654;1846.3846153846155;1.0;0.0
455.92491324767286;81.90957698183254;1846.974358974359;1.0;0.0
634.3734146755605;79.69213576215463;1849.6666666666667;1.0;0.0
-635.8816546334536;-101.77055862413002;1703.5384615384614;1.0;3.0
-492.1377809312603;-107.7041238877562;1766.2820512820513;1.0;3.0
-318.5140063358448;-111.66918847787079;1841.7179487179487;1.0;0.0
-124.22289840003175;-110.32289840003173;1847.7948717948718;1.0;0.0
67.33133837243861;-111.37133837243866;1845.6666666666667;1.0;0.0
257.8980827183924;-110.77643281994582;1842.948717948718;1.0;0.0
179.2047795094721;-56.705211060263274;1837.2564102564102;1.0;0.0
414.7974191939966;-78.46453666702939;1841.6410256410256;1.0;0.0
-669.0481484785154;-289.40784485251515;1699.3333333333333;1.0;3.0
-287.6290767202664;-170.24238312680438;1036.2820512820513;1.0;1.0
-185.73252898397234;-171.83252898397228;1010.4358974358975;1.0;1.0
-81.64132286326688;-172.94571387654773;1307.1538461538462;1.0;1.0
66.67086319535208;-301.74154595552886;1837.1025641025642;1.0;0.0
97.83318355374847;-141.8731835537485;812.5897435897435;1.0;2.0
175.3568520085057;-137.6478927419851;785.7435897435897;1.0;2.0
260.72038504894897;-139.23145762471967;773.5897435897435;1.0;2.0
-783.9688782816978;-338.6629325602023;1697.4102564102564;1.0;3.0
-279.3624326075442;-265.46243260754414;986.8717948717949;1.0;1.0
-184.5267343429028;-274.3697572891218;996.3846153846154;1.0;1.0
-80.99196528107092;-275.1782323411639;995.6666666666666;1.0;1.0
67.20071038676235;-495.92060505772304;1781.948717948718;1.0;0.0
95.88008669597858;-223.18440478321014;791.6923076923077;1.0;2.0
169.02397704425525;-213.06397704425532;774.6923076923077;1.0;2.0
274.03085995770823;-230.40150298262176;764.3333333333334;1.0;2.0
-751.3040311195721;-737.4040311195719;1704.8974358974358;1.0;3.0
-304.82438746667856;-403.2348317490077;980.1794871794872;1.0;1.0
-189.44979124621875;-389.49740612153107;991.4358974358975;1.0;1.0
-79.76234789988109;-370.6209721716515;988.4615384615385;1.0;1.0
45.2631788392228;-534.7088825282005;1659.3333333333333;1.0;0.0
101.55920995737199;-319.61746437479013;789.9230769230769;1.0;2.0
188.52087231899847;-321.1093877942102;772.5128205128206;1.0;2.0
297.16019857522394;-341.20019857522414;767.1794871794872;1.0;2.0
-692.5568297268363;742.8568297268365;1759.923076923077;2.0;3.0
-463.69551406749935;714.6184380679973;1765.7179487179487;2.0;3.0
-265.83862700118476;709.3033791677177;1860.6410256410256;2.0;0.0
-63.77862810100343;671.1786901292327;1848.051282051282;2.0;0.0
119.24049726206616;652.4315350407537;1780.4615384615386;2.0;0.0
309.89109194432166;676.4346972668639;1684.3589743589744;2.0;4.0
516.5957869437167;707.2454257476496;1696.179487179487;2.0;4.0
765.2326232425389;757.3926232425388;1710.974358974359;2.0;4.0
-638.62132159855;495.73352394490405;1739.2307692307693;2.0;3.0
-421.60874807732034;471.9087480773204;1756.3589743589744;2.0;3.0
-256.74685558063067;497.6622264430397;1852.0;2.0;0.0
-66.74736098917086;500.313868897146;1848.820512820513;2.0;0.0
125.24334475828411;502.093776834609;1840.6923076923076;2.0;0.0
318.25352559116163;503.2741770942974;1833.923076923077;2.0;0.0
503.0754501988922;495.2354501988922;1839.5897435897436;2.0;0.0
768.7927605909672;546.9236031493098;1835.3076923076924;2.0;0.0
-607.6410162956217;294.1246901555705;1718.2564102564102;2.0;3.0
-435.7546020190702;300.0833159007297;1762.6410256410256;2.0;3.0
-257.17139330658006;307.4713933065801;1844.7948717948718;2.0;0.0
-67.32376755606776;310.15828277106885;1848.8974358974358;2.0;0.0
124.43345324514956;307.07004426648996;1848.948717948718;2.0;0.0
318.6258026261952;310.78580262619516;1848.1538461538462;2.0;0.0
515.5909468445885;313.09918827762493;1851.6410256410256;2.0;0.0
737.0561011617065;324.67323054914743;1860.6153846153845;2.0;0.0
-573.6668679961031;107.33416814319061;1711.128205128205;2.0;3.0
-438.90948829630673;114.8264712584416;1766.6410256410256;2.0;3.0
-259.65624847637673;117.55636381610121;1843.7179487179487;2.0;0.0
-67.1564985479817;117.45649854798174;1848.2564102564102;2.0;0.0
125.6277045796208;117.78770457962078;1849.6410256410256;2.0;0.0
321.0961419563473;118.65729156888928;1846.3846153846155;2.0;0.0
516.9411621379545;118.80483040785631;1846.974358974359;2.0;0.0
698.1261574587834;116.80823146043303;1849.6666666666667;2.0;0.0
-576.0034382866882;-65.20795963971469;1703.5384615384614;2.0;3.0
-440.3927449108592;-72.66312439936922;1766.2820512820513;2.0;3.0
-260.6760406305368;-75.4365922178374;1841.7179487179487;2.0;0.0
-67.38738736811476;-75.22738736811472;1847.7948717948718;2.0;0.0
124.52580758974463;-74.22580758974469;1845.6666666666667;2.0;0.0
155.7839854947305;-21.044983766681252;1842.948717948718;2.0;0.0
235.25068702612384;-20.00639011944843;1837.2564102564102;2.0;0.0
698.3226914084588;-74.37630738070104;1841.6410256410256;2.0;0.0
-611.8981393638616;-253.48929543320546;1699.3333333333333;2.0;3.0
-231.07828788209792;-134.8357770408728;1036.2820512820513;2.0;1.0
-128.61829195041312;-136.45829195041307;1010.4358974358975;2.0;1.0
-23.699104139102808;-136.93880104214696;1307.1538461538462;2.0;1.0
119.07806561970654;-248.5579385191696;1837.1025641025642;2.0;0.0
153.47530009780485;-103.1753000978049;812.5897435897435;2.0;2.0
233.69035451509365;-101.52396807627616;785.7435897435897;2.0;2.0
738.5674375355259;-282.86099014635727;773.5897435897435;2.0;-1.0
-728.4488241576593;-303.44298274219886;1697.4102564102564;2.0;3.0
-223.9128028818268;-231.7528028818267;986.8717948717949;2.0;1.0
-127.85422993529585;-240.34925535585168;996.3846153846154;2.0;1.0
-23.304512913416715;-240.64095970008006;995.6666666666666;2.0;1.0
119.99980005107474;-433.4162139719777;1781.948717948718;2.0;0.0
153.42577403570223;-186.06042790187468;791.6923076923077;2.0;2.0
228.4973152626916;-178.1973152626917;774.6923076923077;2.0;2.0
773.73219694937;-507.973877856419;764.3333333333334;2.0;-1.0
-687.0334856894262;-694.873485689426;1704.8974358974358;2.0;3.0
-250.44204478779716;-372.0816555921449;980.1794871794872;2.0;1.0
-133.80445322499656;-358.7845711239828;991.4358974358975;2.0;1.0
-22.680160148085776;-341.02574346275946;988.4615384615385;2.0;1.0
77.62262478418259;-318.6427103052859;1659.3333333333333;2.0;0.0
156.8319272724569;-276.8609101278566;789.9230769230769;2.0;2.0
249.17278578137888;-288.48470707761413;772.5128205128206;2.0;2.0
835.3366052558239;-785.0366052558242;767.1794871794872;2.0;-1.0
