x;y;z;c;clase
-488.32026258951004;488.3202625895101;1149.3333333333333;0.0;0.0
-324.42562235271987;456.5111987962213;1148.2698412698412;0.0;0.0
-186.69156818599728;435.584063749154;1144.111111111111;0.0;0.0
-59.092904597332804;413.65561047587624;1148.047619047619;0.0;0.0
59.4581143855863;416.2121116149075;1155.142857142857;0.0;0.0
189.66499900881016;442.52159763813734;1162.3333333333333;0.0;0.0
332.771596049495;468.25512466066573;1177.8095238095239;0.0;0.0
508.76810034461175;508.76810034461164;1197.4603174603174;0.0;0.0
-453.3496153152505;322.17880192172345;1140.3174603174602;0.0;0.0
-292.2776986497537;292.2776986497537;1135.6507936507937;0.0;0.0
-179.98690150994435;300.0227542310774;1137.2698412698412;0.0;0.0
-60.4298101581762;302.1471990923555;1141.984126984127;0.0;0.0
60.68935302201489;303.44490545860106;1146.888888888889;0.0;0.0
182.20759742517998;303.72446418446435;1151.3015873015872;0.0;0.0
299.6596040177701;299.6596040177701;1164.3333333333333;0.0;0.0
469.07549562379194;333.35460334695915;1179.873015873016;0.0;0.0
-429.32940558269263;184.01081827170168;1127.6825396825398;0.0;0.0
-297.64427996238516;178.56002902142222;1128.2539682539682;0.0;0.0
-179.09624694401518;179.0962469440152;1133.111111111111;0.0;0.0
-60.37449279866925;180.96500395990296;1140.0;0.0;0.0
60.58549248806592;181.59744918399005;1143.984126984127;0.0;0.0
181.39685572511604;181.396855725116;1147.6666666666667;0.0;0.0
304.44051893789106;182.63716643140765;1154.015873015873;0.0;0.0
443.73022723552117;190.18301831592032;1165.5079365079366;0.0;0.0
-404.1845458534247;57.739912630112116;1121.7619047619048;0.0;0.0
-297.90130544745494;59.58062622503405;1125.936507936508;0.0;0.0
-179.87901235997646;60.01217859098025;1133.1587301587301;0.0;0.0
-59.78193045528388;59.78193045528389;1137.6825396825398;0.0;0.0
60.08553598428635;60.08553598428634;1143.4603174603174;0.0;0.0
179.73790904304863;59.96510296306705;1132.2698412698412;0.0;0.0
304.91479940095036;60.98333361212347;1152.4444444444443;0.0;0.0
417.23585591890435;59.6043617057147;1157.984126984127;0.0;0.0
-403.06357443675773;-57.57977589969197;1118.6507936507937;0.0;0.0
-273.0139011549913;-54.60311486222416;1031.873015873016;0.0;0.0
-160.91069504153944;-53.68386918150677;1013.6666666666666;0.0;0.0
-59.51919490133945;-59.519194901339425;1132.6825396825398;0.0;0.0
58.795212486025825;-58.795212486025854;1118.904761904762;0.0;0.0
126.16904265224476;-42.09317708030872;794.8095238095239;0.0;1.0
224.1000304505828;-44.820280767953925;847.0;0.0;1.0
416.1949538891422;-59.45566331318172;1155.095238095238;0.0;0.0
-425.3530142072998;-182.30653475130885;1117.2380952380952;0.0;0.0
-204.3436018272993;-122.5879411397916;774.5873015873016;0.0;2.0
-126.99761886512835;-126.99761886512829;803.4920634920635;0.0;2.0
-52.82137642724018;-158.32548069925508;997.3809523809524;0.0;2.0
57.04305148759806;-170.97942458517318;1077.095238095238;0.0;0.0
120.60006991004974;-120.60006991004978;763.015873015873;0.0;1.0
214.75361420752566;-128.83302037652842;814.047619047619;0.0;1.0
439.07096013760633;-188.1860538870107;1153.2698412698412;0.0;0.0
-492.04700581325716;-210.8916160656481;1097.6031746031747;0.0;0.0
-198.68232848560052;-198.68232848560044;771.984126984127;0.0;2.0
-123.76109158369991;-206.29914317145287;782.0;0.0;2.0
-49.68523956197931;-248.4246753479756;938.936507936508;0.0;2.0
54.022713182895494;-270.1119105430958;1020.9047619047619;0.0;0.0
118.7921588683877;-198.01635777801468;750.6031746031746;0.0;1.0
195.82679342625153;-195.8267934262516;760.8888888888889;0.0;1.0
451.2040297193823;-320.65401360527875;1134.920634920635;0.0;0.0
-262.40267784078077;-262.4026778407807;617.6031746031746;0.0;2.0
-196.13262420997586;-275.98541308737697;694.1904761904761;0.0;2.0
-116.9843001247069;-272.9448219771958;716.9206349206349;0.0;2.0
-35.82487426250027;-250.77731978578154;696.0;0.0;2.0
34.294588058028765;-240.06517966630588;666.2698412698413;0.0;1.0
114.60918160160635;-267.40325527319084;702.3650793650794;0.0;1.0
177.3911819322628;-249.61364189580658;627.8571428571429;0.0;1.0
255.11240323218408;-255.1124032321842;600.4444444444445;0.0;1.0
-506.70216718202016;462.6621671820202;1149.3333333333333;1.0;0.0
-345.31872894708204;430.07590568398916;1148.2698412698412;1.0;0.0
-212.26854172442518;412.5975398862897;1144.111111111111;1.0;0.0
-86.9738114256508;390.9618609941565;1148.047619047619;1.0;0.0
29.396570141499915;393.5012044074225;1155.142857142857;1.0;0.0
157.06886385903843;418.9911904564504;1162.3333333333333;1.0;0.0
296.6395756337239;443.10718290595446;1177.8095238095239;1.0;0.0
469.3313971137683;483.2313971137682;1197.4603174603174;1.0;0.0
-471.1688807626051;299.18438734773;1140.3174603174602;1.0;0.0
-315.87161261527126;271.83161261527135;1135.6507936507937;1.0;0.0
-205.94740636689903;279.93618350239234;1137.2698412698412;1.0;0.0
-88.34987947921698;281.82757786967926;1141.984126984127;1.0;0.0
30.722338849275225;283.3898651455477;1146.888888888889;1.0;0.0
150.43660653661942;283.98545219574663;1151.3015873015872;1.0;0.0
264.9172563226914;278.81725632269143;1164.3333333333333;1.0;0.0
430.49453426347554;311.45444862359074;1179.873015873016;1.0;0.0
-450.6064781953444;165.64362538194493;1127.6825396825398;1.0;0.0
-322.10020379750824;160.78198581257175;1128.2539682539682;1.0;0.0
-205.61259875653803;161.57259875653807;1133.111111111111;1.0;0.0
-88.49965340487;163.36270336146654;1140.0;1.0;0.0
30.784943909883154;164.03798352104954;1143.984126984127;1.0;0.0
149.9456102676365;163.8456102676365;1147.6666666666667;1.0;0.0
271.07787895926776;164.93197410665428;1154.015873015873;1.0;0.0
408.5780868449027;172.4633495600514;1165.5079365079366;1.0;0.0
-427.6297581569946;41.88066731589994;1121.7619047619048;1.0;0.0
-322.7178051360735;43.67992107184152;1125.936507936508;1.0;0.0
-206.13277350911633;44.0359727536513;1133.1587301587301;1.0;0.0
-87.99792111951948;43.9579211195195;1137.6825396825398;1.0;0.0
30.449105166503458;44.34910516650344;1143.4603174603174;1.0;0.0
112.93962159595841;32.274631501267805;1132.2698412698412;1.0;0.0
196.71331621134198;30.066939860727942;1152.4444444444443;1.0;0.0
383.2958346888861;43.82436773257767;1157.984126984127;1.0;0.0
-427.4524616574198;-71.995339567721;1118.6507936507937;1.0;0.0
-260.0499268282532;-61.28626859869801;1031.873015873016;1.0;0.0
-159.75765657954224;-58.70406325825294;1013.6666666666666;1.0;0.0
-80.22428504725835;-66.32428504725834;1132.6825396825398;1.0;0.0
30.24392121008968;-74.28392121008972;1118.904761904762;1.0;0.0
94.51807963061655;-56.268740149958056;794.8095238095239;1.0;1.0
164.77882038955772;-53.82000155448336;847.0;1.0;1.0
381.99184753072245;-73.77808622984412;1155.095238095238;1.0;0.0
-448.165046408629;-194.73722638158213;1117.2380952380952;1.0;0.0
-231.63861994793865;-136.65310135914206;774.5873015873016;1.0;2.0
-150.0517677137263;-136.15176771372623;803.4920634920635;1.0;2.0
-75.61858471712281;-154.89330826709735;997.3809523809524;1.0;2.0
30.309143813474684;-192.75183213924362;1077.095238095238;1.0;0.0
90.86989056362275;-134.90989056362278;763.015873015873;1.0;1.0
165.28183600415147;-131.60378146137813;814.047619047619;1.0;1.0
403.63479179160265;-200.48465059397085;1153.2698412698412;1.0;0.0
-368.60475375590045;-160.637641394863;1097.6031746031747;1.0;0.0
-221.59401876741106;-207.694018767411;771.984126984127;1.0;2.0
-147.65162649251653;-212.90210977128484;782.0;1.0;2.0
-71.2267700222071;-226.35255527329645;938.936507936508;1.0;2.0
11.224706168731146;-216.0422991919602;1020.9047619047619;1.0;0.0
87.14677295240833;-208.62671852421698;750.6031746031746;1.0;1.0
155.29984252081792;-199.339842520818;760.8888888888889;1.0;1.0
246.7314385232181;-211.0008139916227;1134.920634920635;1.0;0.0
-253.72761506077518;-239.8276150607751;617.6031746031746;1.0;2.0
-187.70494841341053;-238.4317710757696;694.1904761904761;1.0;2.0
-124.52125129302047;-238.00777238543878;716.9206349206349;1.0;2.0
-58.151651022480436;-219.3441637198677;696.0;1.0;2.0
-0.44605340602977606;-214.74017397284265;666.2698412698413;1.0;2.0
63.49385622264333;-230.80433998503105;702.3650793650794;1.0;1.0
122.05131340080777;-227.5776321790238;627.8571428571429;1.0;1.0
193.130475194182;-237.1704751941821;600.4444444444445;1.0;1.0
-442.77464661467076;493.0746466146708;1149.3333333333333;2.0;0.0
-283.68650706039915;461.32115844195806;1148.2698412698412;2.0;0.0
-152.17459517173307;444.1053235326628;1144.111111111111;2.0;0.0
-28.304702841858486;422.85804471439343;1148.047619047619;2.0;0.0
86.89079801945671;425.98075080368;1155.142857142857;2.0;0.0
213.8656175219738;452.39047942272913;1162.3333333333333;2.0;0.0
353.773671986895;478.1324526401738;1177.8095238095239;2.0;0.0
527.4793012707872;519.6393012707871;1197.4603174603174;2.0;0.0
-408.07413352057404;331.8921654610472;1140.3174603174602;2.0;0.0
-253.86491083754913;304.16491083754914;1135.6507936507937;2.0;0.0
-146.11376735843965;313.2463408477336;1137.2698412698412;2.0;0.0
-29.850429814104437;315.8303436226361;1141.984126984127;2.0;0.0
88.41124203023126;317.9343918086848;1146.888888888889;2.0;0.0
208.0646222265531;319.59870962520876;1151.3015873015872;2.0;0.0
323.3249217809767;315.48492178097666;1164.3333333333333;2.0;0.0
490.52235621258893;349.1671201520616;1179.873015873016;2.0;0.0
-388.25167053268405;200.09429645556136;1127.6825396825398;2.0;0.0
-261.60635534424495;195.60989553392017;1128.2539682539682;2.0;0.0
-146.28556243733985;196.58556243733986;1133.111111111111;2.0;0.0
-30.2209127204531;198.94710796847556;1140.0;2.0;0.0
88.76862128362987;200.16916348115376;1143.984126984127;2.0;0.0
208.38702510403363;200.5470251040336;1147.6666666666667;2.0;0.0
331.278605583643;202.52821742369215;1154.015873015873;2.0;0.0
469.9841202736168;210.20603333035342;1165.5079365079366;2.0;0.0
-365.94660105282696;77.66022294203539;1121.7619047619048;2.0;0.0
-255.07729784404313;78.05980784616092;1125.936507936508;2.0;0.0
-146.4171716205987;79.77694967218213;1133.1587301587301;2.0;0.0
-29.741894108498485;80.04189410849851;1137.6825396825398;2.0;0.0
76.98462422823113;69.14462422823112;1143.4603174603174;2.0;0.0
154.66455057618157;63.13151202380493;1132.2698412698412;2.0;0.0
332.40151364019124;81.89667451934938;1152.4444444444443;2.0;0.0
445.39649645334293;80.70445486828227;1157.984126984127;2.0;0.0
-352.6379251008676;-33.299007780366665;1118.6507936507937;2.0;0.0
-175.63163010854947;-19.71057692306378;1031.873015873016;2.0;0.0
-110.28212397664205;-25.261385745341162;1013.6666666666666;2.0;0.0
-28.881122388909084;-36.72112238890905;1132.6825396825398;2.0;0.0
72.50477451319736;-22.204774513197375;1118.904761904762;2.0;0.0
148.41568939795044;-18.586734216220766;794.8095238095239;2.0;1.0
333.75801576413085;-39.707976606792556;847.0;2.0;1.0
446.986445707595;-38.47158757775507;1155.095238095238;2.0;0.0
-343.30273580597856;-138.36915842413123;1117.2380952380952;2.0;0.0
-170.79302530000962;-98.6699947265541;774.5873015873016;2.0;2.0
-99.80172438255727;-107.6417243825572;803.4920634920635;2.0;2.0
-26.697806352878395;-145.92703651768255;997.3809523809524;2.0;2.0
71.55827610029428;-106.12330263360313;1077.095238095238;2.0;0.0
147.36444344349397;-97.06444344349401;763.015873015873;2.0;1.0
332.06165961224406;-160.53798002114593;814.047619047619;2.0;1.0
470.06872434543357;-167.78229468185154;1153.2698412698412;2.0;0.0
-282.16579498280606;-112.16583211753435;1097.6031746031747;2.0;0.0
-161.39704807880412;-169.23704807880407;771.984126984127;2.0;2.0
-93.48277174746886;-183.0549774615217;782.0;2.0;2.0
-10.929839034716387;-178.76796949303156;938.936507936508;2.0;2.0
67.92079489966335;-173.02278402693463;1020.9047619047619;2.0;0.0
144.38792532679193;-170.99510793012527;750.6031746031746;2.0;1.0
203.46598237997907;-153.16598237997917;760.8888888888889;2.0;1.0
292.8066435533167;-166.1978767916841;1134.920634920635;2.0;0.0
-183.71699764147922;-191.55699764147917;617.6031746031746;2.0;2.0
-116.01809298123061;-182.92877999274754;694.1904761904761;2.0;2.0
-55.727170477411754;-176.61662194375;716.9206349206349;2.0;2.0
2.4309280850022468;-165.24588285931873;696.0;2.0;1.0
56.13637553749558;-168.23704638440458;666.2698412698413;2.0;1.0
115.5118817774867;-180.45402091544375;702.3650793650794;2.0;1.0
176.6246623166556;-186.39958022135832;627.8571428571429;2.0;1.0
254.66387227767237;-204.3638722776725;600.4444444444445;2.0;1.0
