x;y;z;c;clase
-561.1151045184567;561.1151045184569;1320.6666666666667;0.0;0.0
-364.41992295876014;512.7886468666752;1289.8253968253969;0.0;0.0
-208.1142566315415;485.5669407489632;1275.3968253968253;0.0;0.0
-64.84802260283023;453.9419505728258;1259.857142857143;0.0;0.0
64.64948573807504;452.55217478583563;1256.0;0.0;0.0
204.08406642222388;476.16380248131696;1250.6984126984128;0.0;0.0
354.33389671263035;498.5962292045929;1254.126984126984;0.0;0.0
536.8164371597395;536.8164371597394;1263.4761904761904;0.0;0.0
-509.2484306334924;361.9040222366264;1280.920634920635;0.0;0.0
-324.6526848376509;324.65268483765095;1261.4444444444443;0.0;0.0
-197.35555711847155;328.97481601582604;1247.015873015873;0.0;0.0
-65.60386854408718;328.01733247770414;1239.7619047619048;0.0;0.0
65.16625743709695;325.82929035209264;1231.4920634920634;0.0;0.0
193.89137197468241;323.2003159867302;1225.126984126984;0.0;0.0
315.24453427730685;315.2445342773068;1224.888888888889;0.0;0.0
489.1367209451613;347.6113741057169;1230.3333333333333;0.0;0.0
-476.1396298893693;204.0737060360815;1250.6349206349207;0.0;0.0
-326.098034638024;195.6297447952062;1236.111111111111;0.0;0.0
-194.17188289345327;194.1718828934533;1228.4920634920634;0.0;0.0
-64.70460993047023;193.94398941517252;1221.7619047619048;0.0;0.0
64.38348689720526;192.98146321755786;1215.6984126984128;0.0;0.0
190.68208265952615;190.6820826595261;1206.4126984126983;0.0;0.0
317.08663212706387;190.22370677531163;1201.952380952381;0.0;0.0
458.1068762964021;196.34485797399668;1203.2698412698412;0.0;0.0
-442.3490471973975;63.19191468160053;1227.6825396825398;0.0;0.0
-322.0747612536346;64.41534701550542;1217.3015873015872;0.0;0.0
-192.30870276006277;64.15903702840485;1211.4603174603174;0.0;0.0
-63.36180663791744;63.361806637917454;1205.8095238095239;0.0;0.0
63.08072129925307;63.08072129925306;1200.4603174603174;0.0;0.0
189.5143531444748;63.2267714684811;1193.857142857143;0.0;0.0
313.8475548734564;62.769895655440465;1186.2063492063492;0.0;0.0
426.0377692365088;60.86176184916452;1182.4126984126983;0.0;0.0
-436.6584014852362;-62.378975667479;1211.888888888889;0.0;0.0
-317.7700718510401;-63.55440385875879;1201.031746031746;0.0;0.0
-190.39876857736155;-63.52183477915124;1199.4285714285713;0.0;0.0
-62.688703171145505;-62.68870317114548;1193.0;0.0;0.0
62.36424561405216;-62.36424561405219;1186.8253968253969;0.0;0.0
187.28693649868592;-62.483649056422955;1179.8253968253969;0.0;0.0
309.0934978942007;-61.81907843257512;1168.2380952380952;0.0;0.0
420.0725999121025;-60.009605676572875;1165.857142857143;0.0;0.0
-454.75292916366203;-194.90735439676558;1194.4603174603174;0.0;0.0
-312.88242760986856;-187.70155892588144;1186.015873015873;0.0;0.0
-186.98153963649054;-186.98153963649048;1183.0;0.0;0.0
-62.47524269429559;-187.26173947780597;1179.6666666666667;0.0;0.0
61.999442597887025;-185.8355880960001;1170.6825396825398;0.0;0.0
183.9834725771497;-183.98347257714977;1164.031746031746;0.0;0.0
304.7545780402711;-182.82557389027954;1155.2063492063492;0.0;0.0
438.49686107884907;-187.93999471613336;1151.7619047619048;0.0;0.0
-529.7675972580514;-227.05868220925106;1181.7460317460318;0.0;0.0
-301.83291539341207;-301.83291539341195;1172.7777777777778;0.0;0.0
-184.06906311883336;-306.8273681159799;1163.063492063492;0.0;0.0
-59.480672824397146;-297.40154150705615;1124.047619047619;0.0;0.0
61.2193580287535;-306.09491425180806;1156.904761904762;0.0;0.0
173.72674967649763;-289.5876171226608;1097.7142857142858;0.0;0.0
186.56979422098019;-186.56979422098027;724.9206349206349;0.0;1.0
452.75642400345174;-321.75724279894166;1138.8253968253969;0.0;0.0
-497.0132912393539;-497.0132912393538;1169.7936507936508;0.0;0.0
-325.90107928245635;-458.5873683875173;1153.4920634920634;0.0;0.0
-140.7147645834273;-328.31214383335015;862.3492063492064;0.0;2.0
-42.7589580945072;-299.31652597584554;830.7142857142857;0.0;2.0
58.562655933850756;-409.94382246864734;1137.7460317460318;0.0;0.0
122.57631854496192;-285.9919784809545;751.1904761904761;0.0;1.0
200.2450679928572;-281.7721836503516;708.7460317460317;0.0;1.0
477.1791583772977;-477.1791583772979;1123.111111111111;0.0;0.0
-562.581683696275;518.5416836962751;1320.6666666666667;1.0;0.0
-379.30626052063405;477.9010086158956;1289.8253968253969;1.0;0.0
-230.0935860820888;454.18648433226826;1275.3968253968253;1.0;0.0
-92.0981867990863;426.83294632749937;1259.857142857143;1.0;0.0
34.1341662895234;426.6648006149995;1256.0;1.0;0.0
170.81554221182304;451.0645940822257;1250.6984126984128;1.0;0.0
318.220711917239;473.4747917425365;1254.126984126984;1.0;0.0
498.52351799329733;512.4235179932973;1263.4761904761904;1.0;0.0
-516.4722895647792;331.37984418230764;1280.920634920635;1.0;0.0
-341.82961100456305;297.7896110045631;1261.4444444444443;1.0;0.0
-220.36183302031657;303.9637985618207;1247.015873015873;1.0;0.0
-92.83316747282713;304.2438804602047;1239.7619047619048;1.0;0.0
34.813204752317574;303.8440693078857;1231.4920634920634;1.0;0.0
161.47577636683522;302.3868031224026;1225.126984126984;1.0;0.0
280.143508501812;294.04350850181197;1224.888888888889;1.0;0.0
450.9255575728388;325.9740211333593;1230.3333333333333;1.0;0.0
-488.46317444460146;181.86902611925208;1250.6349206349207;1.0;0.0
-345.15465438502815;174.61260055343195;1236.111111111111;1.0;0.0
-218.16785130194788;174.1278513019479;1228.4920634920634;1.0;0.0
-92.1925682874174;174.43175463403486;1221.7619047619048;1.0;0.0
34.07485779204512;173.89908961263237;1215.6984126984128;1.0;0.0
158.97393170675252;172.87393170675247;1206.4126984126983;1.0;0.0
283.8613406625482;172.60091131257153;1201.952380952381;1.0;0.0
423.1372389749887;178.70341013350148;1203.2698412698412;1.0;0.0
-457.13303953463867;46.0953680176545;1227.6825396825398;1.0;0.0
-342.0338914173353;47.543162003685524;1217.3015873015872;1.0;0.0
-217.42759008876908;47.804208640859805;1211.4603174603174;1.0;0.0
-91.2768608327462;47.236860832746224;1205.8095238095239;1.0;0.0
33.01340417300128;46.91340417300126;1200.4603174603174;1.0;0.0
157.4168989128536;47.11337380123369;1193.857142857143;1.0;0.0
280.7836902591645;46.88111771476092;1186.2063492063492;1.0;0.0
392.49123185070823;45.13797913650141;1182.4126984126983;1.0;0.0
-453.2096395763042;-75.67488946118469;1211.888888888889;1.0;0.0
-339.15877886609985;-77.10813596943305;1201.031746031746;1.0;0.0
-215.05705436438208;-77.15333809191813;1199.4285714285713;1.0;0.0
-90.5482075631403;-76.64820756314026;1193.0;1.0;0.0
32.310440602003226;-76.35044060200326;1186.8253968253969;1.0;0.0
155.21215958585674;-76.51781711509017;1179.8253968253969;1.0;0.0
277.4499707979162;-76.35436973639477;1168.2380952380952;1.0;0.0
387.7030825138022;-74.5939665308506;1165.857142857143;1.0;0.0
-471.4069935663206;-204.6987376573122;1194.4603174603174;1.0;0.0
-335.1767873296768;-198.76676998010274;1186.015873015873;1.0;0.0
-211.99659996088823;-198.09659996088817;1183.0;1.0;0.0
-90.17302384994156;-198.51842233783216;1179.6666666666667;1.0;0.0
32.26244611738708;-198.6066119109121;1170.6825396825398;1.0;0.0
152.3039224314694;-196.34392243146945;1164.031746031746;1.0;0.0
177.7277888587407;-139.0702434514945;1155.2063492063492;1.0;0.0
406.43639519833846;-201.68541934785242;1151.7619047619048;1.0;0.0
-545.442529713163;-236.43040898104738;1181.7460317460318;1.0;0.0
-323.97414228152707;-310.0741422815269;1172.7777777777778;1.0;0.0
-171.5818858686852;-252.7918032282584;1163.063492063492;1.0;0.0
-74.97090681782996;-245.07312452305786;1124.047619047619;1.0;0.0
31.264271068526796;-316.23950963584423;1156.904761904762;1.0;0.0
93.16274871915708;-218.6548350359491;1097.7142857142858;1.0;0.0
151.46631734243016;-195.50631734243024;724.9206349206349;1.0;1.0
422.50412108262685;-335.91595754629;1138.8253968253969;1.0;0.0
-506.51738131312527;-492.6173813131251;1169.7936507936508;1.0;0.0
-344.88730354695883;-459.60883117127554;1153.4920634920634;1.0;0.0
-165.55563268645153;-333.74815731260344;862.3492063492064;1.0;2.0
-70.50489253575702;-305.8179577286494;830.7142857142857;1.0;2.0
27.954032329105495;-413.54331087034495;1137.7460317460318;1.0;0.0
94.13366219960015;-302.29236341109123;751.1904761904761;1.0;1.0
169.01120581008877;-293.6566200950741;708.7460317460317;1.0;1.0
436.4071412033438;-480.4471412033441;1123.111111111111;1.0;0.0
-491.50710676509954;541.8071067650997;1320.6666666666667;2.0;0.0
-313.8136333904347;503.7141434887953;1289.8253968253969;2.0;0.0
-168.38195941861989;481.91993749684724;1275.3968253968253;2.0;0.0
-33.07230605810535;456.2316930798244;1259.857142857143;2.0;0.0
91.56699851749639;458.71457197739005;1256.0;2.0;0.0
227.67902618004712;484.6195765157311;1250.6984126984128;2.0;0.0
377.2036344889697;511.10161269604566;1254.126984126984;2.0;0.0
562.2156113089692;554.375611308969;1263.4761904761904;2.0;0.0
-446.7350617397743;359.3670570547728;1280.920634920635;2.0;0.0
-276.17522222555;326.47522222555006;1261.4444444444443;2.0;0.0
-159.25634089676777;335.1538856611312;1247.015873015873;2.0;0.0
-33.908339347616696;336.11976694717725;1239.7619047619048;2.0;0.0
92.31773247018889;337.46672430525734;1231.4920634920634;2.0;0.0
218.99910602143936;337.8255578942513;1225.126984126984;2.0;0.0
340.2533536181828;332.41335361818284;1224.888888888889;2.0;0.0
514.3876933217133;366.1273324419276;1230.3333333333333;2.0;0.0
-420.39913019015364;213.87271526407255;1250.6349206349207;2.0;0.0
-280.9638925173959;207.22269185528037;1236.111111111111;2.0;0.0
-157.08676899366142;207.38676899366143;1228.4920634920634;2.0;0.0
-33.48067068902;208.7178254742471;1221.7619047619048;2.0;0.0
91.81999317720704;209.31526974569366;1215.6984126984128;2.0;0.0
216.93665935074605;209.09665935074602;1206.4126984126983;2.0;0.0
344.8261635660717;210.65554426772752;1201.952380952381;2.0;0.0
487.88403448628964;217.87794636132048;1203.2698412698412;2.0;0.0
-390.4382667137488;81.1589876769453;1227.6825396825398;2.0;0.0
-280.3405368369869;83.11248660972474;1217.3015873015872;2.0;0.0
-156.4725238367834;83.13166896419862;1211.4603174603174;2.0;0.0
-32.78368181060929;83.0836818106093;1205.8095238095239;2.0;0.0
90.99055995161336;83.15055995161335;1200.4603174603174;2.0;0.0
216.8464458952358;83.8769617461152;1193.857142857143;2.0;0.0
341.76615067830386;83.76961340514191;1186.2063492063492;2.0;0.0
458.29359495936836;82.546874002214;1182.4126984126983;2.0;0.0
-387.49025746861815;-38.27784887291877;1211.888888888889;2.0;0.0
-276.9442800698277;-39.97323109352469;1201.031746031746;2.0;0.0
-155.92414503690497;-40.488715955717765;1199.4285714285713;2.0;0.0
-32.37094814041295;-40.210948140412924;1193.0;2.0;0.0
90.75362025205615;-40.45362025205618;1186.8253968253969;2.0;0.0
215.45529546607034;-40.95283885091662;1179.8253968253969;2.0;0.0
340.7030164778192;-41.09698526196895;1168.2380952380952;2.0;0.0
455.44385268907536;-39.67977315832168;1165.857142857143;2.0;0.0
-407.8838805846619;-166.04867243161016;1194.4603174603174;2.0;0.0
-274.3494652113407;-160.79462523603095;1186.015873015873;2.0;0.0
-153.3623691570536;-161.20236915705354;1183.0;2.0;0.0
-32.47828078465946;-163.25328689175498;1179.6666666666667;2.0;0.0
90.74442206945389;-163.63137964325017;1170.6825396825398;2.0;0.0
145.85407450622762;-95.55407450622765;1164.031746031746;2.0;0.0
337.3579523147824;-163.71528340755975;1155.2063492063492;2.0;0.0
475.7564253553041;-170.2200464484481;1151.7619047619048;2.0;0.0
-483.7274388363788;-198.5552630193071;1181.7460317460318;2.0;0.0
-203.42024437475828;-211.2602443747582;1172.7777777777778;2.0;0.0
-104.02856524538572;-200.63391228541158;1163.063492063492;2.0;0.0
-31.808997228143213;-283.16312067813845;1124.047619047619;2.0;0.0
83.52781972797516;-251.05742993589976;1156.904761904762;2.0;0.0
145.27191028655062;-172.46863517072282;1097.7142857142858;2.0;0.0
327.8670385698778;-277.5670385698779;724.9206349206349;2.0;1.0
492.03011772677644;-307.7786304871631;1138.8253968253969;2.0;0.0
-444.2149218741541;-452.0549218741539;1169.7936507936508;2.0;0.0
-210.08758428904375;-315.2974133197151;1153.4920634920634;2.0;0.0
-101.78831704171208;-284.0853287330916;862.3492063492064;2.0;2.0
-25.93447126186497;-363.8062119406876;830.7142857142857;2.0;2.0
71.3242600039677;-274.5535942614429;1137.7460317460318;2.0;0.0
145.7854010116523;-251.08743334073566;751.1904761904761;2.0;1.0
349.70020407648695;-429.94052645767147;708.7460317460317;2.0;1.0
513.053986897669;-462.7539868976692;1123.111111111111;2.0;0.0
