x;y;z;c;clase
-548.861238686986;548.861238686986;1291.8253968253969;0.0;0.0
-360.5765594670157;507.38050905591285;1276.2222222222222;0.0;0.0
-206.5291175517842;481.8685341809687;1265.6825396825398;0.0;0.0
-64.91746965428781;454.4280861361762;1261.2063492063492;0.0;0.0
64.89214190610923;454.25078963660144;1260.7142857142858;0.0;0.0
206.04217940310062;480.7324223594279;1262.6984126984128;0.0;0.0
359.31636677018935;505.6072456663864;1271.7619047619048;0.0;0.0
546.8987318312029;546.8987318312028;1287.2063492063492;0.0;0.0
-501.17093191963494;356.16364269236414;1260.6031746031747;0.0;0.0
-320.7145792622398;320.71457926223985;1246.142857142857;0.0;0.0
-196.40598352575776;327.39195813983025;1241.015873015873;0.0;0.0
-65.5442324815223;327.71915399225617;1238.6349206349207;0.0;0.0
65.4871162525869;327.4335745977426;1237.5555555555557;0.0;0.0
195.60713590014151;326.06034754573847;1235.968253968254;0.0;0.0
320.0772924678788;320.07729246787875;1243.6666666666667;0.0;0.0
498.92437758984335;354.56709963161603;1254.952380952381;0.0;0.0
-468.59173805370716;200.83867546317802;1230.8095238095239;0.0;0.0
-322.61825978365226;193.5421901509068;1222.920634920635;0.0;0.0
-192.347954230574;192.34795423057406;1216.952380952381;0.0;0.0
-64.54993286732689;193.4803642309812;1218.8412698412699;0.0;0.0
64.46839115469155;193.2359531284455;1217.3015873015872;0.0;0.0
192.41569298421604;192.41569298421598;1217.3809523809523;0.0;0.0
321.08983881873576;192.625273851064;1217.126984126984;0.0;0.0
466.1865651549131;199.8078170420287;1224.4920634920634;0.0;0.0
-435.58890324586514;62.226192154272596;1208.920634920635;0.0;0.0
-318.5554151859524;63.71147348833116;1204.0;0.0;0.0
-191.10932456617653;63.75889419114274;1203.904761904762;0.0;0.0
-63.097402921725724;63.09740292172574;1200.7777777777778;0.0;0.0
63.21167203566349;63.21167203566347;1202.952380952381;0.0;0.0
186.7653581664707;62.30963736038658;1176.5396825396826;0.0;0.0
318.2614363974826;63.65267737030937;1202.888888888889;0.0;0.0
433.3126449610006;61.901016548624035;1202.6031746031747;0.0;0.0
-247.45444022923303;-35.35018324018407;686.7777777777778;0.0;2.0
-175.48433823162242;-35.09708273624841;663.2539682539683;0.0;2.0
-125.79864644530932;-41.969603557036486;792.4761904761905;0.0;2.0
-61.88631713021039;-61.886317130210365;1177.7301587301588;0.0;0.0
39.416171659532736;-39.41617165953276;750.1111111111111;0.0;1.0
116.02220234388315;-38.707935051622535;730.8888888888889;0.0;1.0
313.37718881190455;-62.67582186660583;1184.4285714285713;0.0;0.0
427.1987753466282;-61.0276177485277;1185.6349206349207;0.0;0.0
-249.38258797619756;-106.8855137325926;655.031746031746;0.0;2.0
-173.73749543668208;-104.22700624787298;658.5714285714286;0.0;2.0
-107.55659656987194;-107.5565965698719;680.4920634920635;0.0;2.0
-62.29450590855744;-186.72000352888676;1176.2539682539682;0.0;0.0
39.239217138071275;-117.61465406349697;740.9206349206349;0.0;1.0
114.6214976904606;-114.62149769046064;725.1904761904761;0.0;1.0
308.2217905305476;-184.90559223622407;1168.3492063492063;0.0;0.0
445.83928588295595;-191.0869620068281;1171.047619047619;0.0;0.0
-292.10865863049384;-125.19793100566775;651.6031746031746;0.0;2.0
-168.33767266178967;-168.3376726617896;654.0793650793651;0.0;2.0
-105.66895133310503;-176.14109443356458;667.6825396825396;0.0;2.0
-58.54833438148137;-292.7398778613196;1106.4285714285713;0.0;0.0
38.50305785879207;-192.51410947798422;727.6190476190476;0.0;1.0
113.19771338962144;-188.69089616467434;715.2539682539683;0.0;1.0
292.1714841840268;-292.1714841840269;1135.2380952380952;0.0;0.0
455.74762274592706;-323.8829770989263;1146.3492063492063;0.0;0.0
-240.403717828531;-240.40371782853092;565.8253968253969;0.0;2.0
-177.99661258732203;-250.4655655882835;630.0;0.0;2.0
-100.96973324539364;-235.58003797407392;618.7777777777778;0.0;2.0
-29.306655715104107;-205.14920773389855;569.3650793650794;0.0;2.0
33.15402236585465;-232.0811179435146;644.1111111111111;0.0;1.0
103.19462616943208;-240.77110209483763;632.4126984126984;0.0;1.0
155.64052506533136;-219.007494425331;550.8730158730159;0.0;1.0
233.60575593633354;-233.60575593633365;549.8253968253969;0.0;1.0
-554.7869571536146;510.7469571536147;1291.8253968253969;1.0;0.0
-375.984912793696;473.2274183444246;1276.2222222222222;1.0;0.0
-229.32950760410117;452.40375567612705;1265.6825396825398;1.0;0.0
-92.19786374353133;427.5306938419554;1261.2063492063492;1.0;0.0
34.47600918752171;429.05773143506815;1260.7142857142858;1.0;0.0
172.9875971665363;456.1323779840562;1262.6984126984128;1.0;0.0
323.6911142360601;481.1723955950078;1271.7619047619048;1.0;0.0
510.55752910484205;524.4575291048419;1287.2063492063492;1.0;0.0
-509.8399058551978;326.666454415886;1260.6031746031747;1.0;0.0
-339.24696541869696;295.206965418697;1246.142857142857;1.0;0.0
-219.68607826782974;302.8373732479506;1241.015873015873;1.0;0.0
-92.76042827538883;303.8801867018977;1238.6349206349207;1.0;0.0
35.07325158288218;305.1442954923182;1237.5555555555557;1.0;0.0
163.19304755196524;305.2493471542299;1235.968253968254;1.0;0.0
284.9958755168259;298.8958755168258;1243.6666666666667;1.0;0.0
461.4351406650718;333.44279308102693;1254.952380952381;1.0;0.0
-482.0308477273246;179.11212736681136;1230.8095238095239;1.0;0.0
-342.5140454522161;173.02847063923798;1222.920634920635;1.0;0.0
-217.183381415684;173.14338141568405;1216.952380952381;1.0;0.0
-92.08580748839998;174.1117524688593;1218.8412698412699;1.0;0.0
34.37614181068955;174.80215084097028;1217.3015873015872;1.0;0.0
160.6834571412586;174.58345714125858;1217.3809523809523;1.0;0.0
288.1794439475399;175.19138826708598;1217.126984126984;1.0;0.0
432.21888176973084;182.59580720712782;1224.4920634920634;1.0;0.0
-451.8221514860828;45.336679406083675;1208.920634920635;1.0;0.0
-325.0444372619636;44.14525034875624;1204.0;1.0;0.0
-212.00367937414796;45.99465512932519;1203.904761904762;1.0;0.0
-90.5176801940153;46.477680194015306;1200.7777777777778;1.0;0.0
14.983572972097207;28.88357297209719;1202.952380952381;1.0;0.0
84.88273884611826;22.914147272457136;1176.5396825396826;1.0;0.0
285.13793608610115;47.75197221711684;1202.888888888889;1.0;0.0
400.4878759057275;46.280342281772064;1202.6031746031747;1.0;0.0
-259.4954841407931;-48.00179180119027;686.7777777777778;1.0;2.0
-200.19164579880928;-49.31453902493353;663.2539682539683;1.0;2.0
-134.11212872791464;-50.148067885030216;792.4761904761905;1.0;2.0
-89.59602055240066;-75.69602055240064;1177.7301587301588;1.0;0.0
9.683821512532027;-53.72382151253204;750.1111111111111;1.0;1.0
85.57313721822926;-53.28448159474675;730.8888888888889;1.0;1.0
280.787050016747;-77.02178967039558;1184.4285714285713;1.0;0.0
395.2776465149947;-75.67603329497337;1185.6349206349207;1.0;0.0
-271.3727520513058;-118.96395223403093;655.031746031746;1.0;2.0
-198.13898236072595;-116.5563057461514;658.5714285714286;1.0;2.0
-131.96050280585507;-118.06050280585504;680.4920634920635;1.0;2.0
-84.87567069176704;-182.64026766011398;1176.2539682539682;1.0;0.0
9.251206684448483;-129.63329483493328;740.9206349206349;1.0;1.0
83.71467110484467;-127.7546711048447;725.1904761904761;1.0;1.0
276.4587582467137;-198.300021901991;1168.3492063492063;1.0;0.0
414.09548095696005;-204.96810769701008;1171.047619047619;1.0;0.0
-314.5606315104351;-137.47430101367752;651.6031746031746;1.0;2.0
-192.76087649432853;-178.86087649432847;654.0793650793651;1.0;2.0
-131.48626652131713;-185.9558387870706;667.6825396825396;1.0;2.0
-68.49023070056782;-212.669942518513;1106.4285714285713;1.0;0.0
8.550322743286252;-202.67046401355924;727.6190476190476;1.0;1.0
82.21552172887074;-200.40674495125464;715.2539682539683;1.0;1.0
213.0805118762272;-257.12051187622734;1135.2380952380952;1.0;0.0
254.59437867748872;-216.58871470424054;1146.3492063492063;1.0;0.0
-251.66394805778668;-237.7639480577866;565.8253968253969;1.0;2.0
-186.9470389267071;-237.36528882370558;630.0;1.0;2.0
-118.15738410517109;-223.15975778157812;618.7777777777778;1.0;2.0
-56.10500556481844;-205.01746270583322;569.3650793650794;1.0;2.0
-1.3578523404612248;-208.35749998814705;644.1111111111111;1.0;2.0
58.31107305500534;-218.71200086320562;632.4126984126984;1.0;1.0
119.71479953943225;-224.289837780649;550.8730158730159;1.0;1.0
195.5987827859918;-239.6387827859919;549.8253968253969;1.0;1.0
-484.5875074595354;534.8875074595355;1291.8253968253969;2.0;0.0
-310.5182967583066;499.0771543833715;1276.2222222222222;2.0;0.0
-167.77215650882258;480.4971607098906;1265.6825396825398;2.0;0.0
-33.27057553314375;457.61959711491295;1261.2063492063492;2.0;0.0
91.94981146210863;461.39429678328133;1260.7142857142858;2.0;0.0
230.09516241373785;490.2568447087653;1262.6984126984128;2.0;0.0
382.80743540060934;518.9869266038561;1271.7619047619048;2.0;0.0
575.0313144671003;567.1913144671003;1287.2063492063492;2.0;0.0
-440.19481199989787;354.71914349252785;1260.6031746031747;2.0;0.0
-274.1355331043436;324.4355331043436;1246.142857142857;2.0;0.0
-158.95561975514067;334.65260926596255;1241.015873015873;2.0;0.0
-34.084590256211136;337.001016089445;1238.6349206349207;2.0;0.0
92.59164602157524;338.8362836688926;1237.5555555555557;2.0;0.0
220.91652302106064;341.02172786223133;1235.968253968254;2.0;0.0
345.3725937628167;337.53259376281665;1243.6666666666667;2.0;0.0
524.971626118017;373.6489419740366;1254.952380952381;2.0;0.0
-413.38512301028123;210.86650794691892;1230.8095238095239;2.0;0.0
-277.8662419381383;205.36437770457547;1222.920634920635;2.0;0.0
-156.54672919274034;206.84672919274038;1216.952380952381;2.0;0.0
-33.7061904584548;209.3937928253087;1218.8412698412699;2.0;0.0
92.16142903823066;210.33868110830733;1217.3015873015872;2.0;0.0
218.87900539036247;211.03900539036243;1217.3809523809523;2.0;0.0
349.72015607540357;213.5915034086435;1217.126984126984;2.0;0.0
498.09080156077835;222.25257231720224;1224.4920634920634;2.0;0.0
-197.7837308270166;53.637262306651905;1208.920634920635;2.0;0.0
-243.23835206266352;75.6920041789721;1204.0;2.0;0.0
-155.8484165359693;82.92345101645141;1203.904761904762;2.0;0.0
-9.978341884010518;60.27834188401053;1200.7777777777778;2.0;0.0
66.98232339362215;59.142323393622135;1202.952380952381;2.0;0.0
218.2693903834752;84.35169194188916;1176.5396825396826;2.0;0.0
347.05845609390343;84.82808097500349;1202.888888888889;2.0;0.0
466.8722498695901;83.77238049443827;1202.6031746031747;2.0;0.0
-200.07142759572474;-11.504071960569828;686.7777777777778;2.0;2.0
-144.7134609554753;-13.526905196265627;663.2539682539683;2.0;2.0
-154.54573055647523;-40.02884209446708;792.4761904761905;2.0;2.0
-9.241014170718806;-17.08101417071879;1177.7301587301588;2.0;0.0
67.12578534688703;-16.825785346887056;750.1111111111111;2.0;1.0
215.35913447183933;-40.92075711617967;730.8888888888889;2.0;1.0
344.55963639190946;-41.86831397181902;1184.4285714285713;2.0;0.0
462.94884991125576;-40.75190193796848;1185.6349206349207;2.0;0.0
-212.0697341220397;-82.12262205810073;655.031746031746;2.0;2.0
-144.2110628745563;-82.72318740764598;658.5714285714286;2.0;2.0
-151.3308451623058;-159.1708451623057;680.4920634920635;2.0;2.0
-8.94525081232841;-92.71596782337413;1176.2539682539682;2.0;0.0
67.13232644024146;-92.85707114030195;740.9206349206349;2.0;1.0
211.94958177705772;-161.6495817770578;725.1904761904761;2.0;1.0
341.19868576415627;-166.01938102458914;1168.3492063492063;2.0;0.0
483.79271342372726;-173.6644039140884;1171.047619047619;2.0;0.0
-252.35791768376004;-99.3901595886619;651.6031746031746;2.0;2.0
-136.18745315571087;-144.02745315571082;654.0793650793651;2.0;2.0
-67.03790082022473;-138.97364185144815;667.6825396825396;2.0;2.0
-7.74056960430989;-162.82172006703007;1106.4285714285713;2.0;0.0
66.07711662741099;-163.8044491599151;727.6190476190476;2.0;1.0
121.95487722379116;-133.60113747339906;715.2539682539683;2.0;1.0
175.36000067994965;-125.06000067994974;1135.2380952380952;2.0;0.0
253.57397987827608;-138.3166739583412;1146.3492063492063;2.0;0.0
-194.95926200089687;-202.79926200089682;565.8253968253969;2.0;2.0
-118.74925793627418;-186.7719024277;630.0;2.0;2.0
-55.576944878349785;-176.26611936050867;618.7777777777778;2.0;2.0
1.9995393418303742;-168.26564259401343;569.3650793650794;2.0;1.0
56.6780625388648;-172.02890377853825;644.1111111111111;2.0;1.0
115.70095882458196;-180.89517071848886;632.4126984126984;2.0;1.0
180.37384770650192;-191.6751965688465;550.8730158730159;2.0;1.0
271.3552965665498;-221.0552965665499;549.8253968253969;2.0;1.0
