x;y;z;c;clase
-548.5847342846247;548.5847342846248;1291.1746031746031;0.0;0.0
-360.9173945024563;507.8601105420481;1277.4285714285713;0.0;0.0
-206.6430817993484;482.1344326923931;1266.3809523809523;0.0;0.0
-64.9722102713191;454.81127534493487;1262.2698412698412;0.0;0.0
64.93217608871417;454.5310324907681;1261.4920634920634;0.0;0.0
206.21312577444698;481.1312701265645;1263.7460317460318;0.0;0.0
360.4958353796745;507.26691923024924;1275.936507936508;0.0;0.0
547.5191807340622;547.5191807340622;1288.6666666666667;0.0;0.0
-501.54325412597683;356.42823831198245;1261.5396825396826;0.0;0.0
-321.02913748766167;321.02913748766167;1247.3650793650793;0.0;0.0
-196.46878601204833;327.4966445072902;1241.4126984126983;0.0;0.0
-65.4669575835509;327.3327818702672;1237.1746031746031;0.0;0.0
65.5123145888819;327.5595655070868;1238.031746031746;0.0;0.0
195.63979319301262;326.1147844568177;1236.1746031746031;0.0;0.0
320.39185069330057;320.39185069330057;1244.888888888889;0.0;0.0
498.09138553497684;353.975122991114;1252.857142857143;0.0;0.0
-468.80929138123616;200.93191893845784;1231.3809523809523;0.0;0.0
-322.71875869641394;193.60248053774578;1223.3015873015872;0.0;0.0
-192.70170105514896;192.701701055149;1219.1904761904761;0.0;0.0
-64.60877740221837;193.65674337714094;1219.952380952381;0.0;0.0
64.47091306332976;193.24351223470947;1217.3492063492063;0.0;0.0
192.40063992785116;192.40063992785113;1217.2857142857142;0.0;0.0
321.3452735553383;192.7785119176131;1218.095238095238;0.0;0.0
466.6760601418536;200.01761486140833;1225.7777777777778;0.0;0.0
-435.9720924546237;62.28093277130387;1209.984126984127;0.0;0.0
-318.7612003378814;63.75263077094637;1204.7777777777778;0.0;0.0
-191.2151520538724;63.794200912077635;1204.5714285714287;0.0;0.0
-63.220846928023434;63.22084692802345;1203.126984126984;0.0;0.0
63.352631745557495;63.35263174555748;1205.6349206349207;0.0;0.0
190.90018929287285;63.68912138548568;1202.5873015873017;0.0;0.0
317.8330673057122;63.5670030269063;1201.2698412698412;0.0;0.0
433.6214840247761;61.94513585190297;1203.4603174603174;0.0;0.0
-416.8869821616764;-59.55452323349198;1157.015873015873;0.0;0.0
-297.32174726447147;-59.46471387807688;1123.7460317460318;0.0;0.0
-183.1042310326119;-61.08819294328174;1153.4761904761904;0.0;0.0
-56.27628749265369;-56.27628749265366;1070.968253968254;0.0;0.0
61.68780582278566;-61.68780582278569;1173.952380952381;0.0;0.0
188.60978009488403;-62.92498306810913;1188.1587301587301;0.0;0.0
198.81365494519576;-39.762974673543205;751.4285714285714;0.0;1.0
248.2436956144373;-35.46293257078579;688.968253968254;0.0;1.0
-296.8696448574092;-127.23849230895416;779.7619047619048;0.0;2.0
-204.92565803037715;-122.93712296356733;776.7936507936508;0.0;2.0
-121.15201531009576;-121.15201531009572;766.5079365079365;0.0;2.0
-41.24161259680756;-123.61658443710438;778.7301587301587;0.0;2.0
45.952537932977584;-137.73699493823636;867.6825396825396;0.0;2.0
184.60064788811025;-184.6006478881103;1167.936507936508;0.0;0.0
191.1489320726359;-114.67231576772487;724.5714285714286;0.0;1.0
263.28182834611175;-112.84273576436075;691.5396825396825;0.0;1.0
-332.92460138230285;-142.6916664140259;742.6507936507936;0.0;2.0
-192.2604384808845;-192.26043848088443;747.031746031746;0.0;2.0
-116.92566897583146;-194.90507893710213;738.8095238095239;0.0;2.0
-39.25144844675427;-196.25603948550793;741.7619047619048;0.0;2.0
40.20142572507648;-201.00589676778537;759.7142857142857;0.0;2.0
178.95694073477847;-298.3058978047329;1130.7619047619048;0.0;0.0
183.54676711952354;-183.54676711952362;713.1746031746031;0.0;1.0
273.2655678173204;-194.1997307853061;687.3492063492064;0.0;1.0
-241.42880732021152;-241.42880732021146;568.2380952380952;0.0;3.0
-172.8347556690049;-243.20212729168202;611.7301587301587;0.0;3.0
-100.96714314885811;-235.57399482608702;618.7619047619048;0.0;3.0
-33.28883134809595;-233.02479286060668;646.7301587301587;0.0;3.0
30.613894330776365;-214.29999480873096;594.7619047619048;0.0;3.0
91.25169104400536;-212.90614672715282;559.2222222222222;0.0;3.0
164.21521700957317;-231.07325812915556;581.2222222222222;0.0;3.0
243.58014645077785;-243.58014645077796;573.3015873015873;0.0;3.0
-555.232061801318;511.19206180131806;1291.1746031746031;1.0;0.0
-376.50065001837584;473.9531311194977;1277.4285714285713;1.0;0.0
-229.28288586646124;452.2949790123625;1266.3809523809523;1.0;0.0
-92.24116602267549;427.8338136638092;1262.2698412698412;1.0;0.0
34.421268570490426;428.6745422263095;1261.4920634920634;1.0;0.0
172.97982687692968;456.1142485400955;1263.7460317460318;1.0;0.0
324.60150255440794;482.4534364066586;1275.936507936508;1.0;0.0
510.78008142869373;524.6800814286936;1288.6666666666667;1.0;0.0
-509.6632105708321;326.5408836133553;1261.5396825396826;1.0;0.0
-339.4879905524617;295.4479905524618;1247.3650793650793;1.0;0.0
-219.66849357166842;302.80806106506185;1241.4126984126983;1.0;0.0
-92.79654589074502;304.0607736719578;1237.1746031746031;1.0;0.0
35.071571693795846;305.13589609836185;1238.031746031746;1.0;0.0
163.20812014867496;305.2744718824203;1236.1746031746031;1.0;0.0
285.23690065059066;299.13690065059063;1244.888888888889;1.0;0.0
461.82008396315393;333.71635804368304;1252.857142857143;1.0;0.0
-481.6682588481094;178.95672157467828;1231.3809523809523;1.0;0.0
-342.3507347189784;172.93049876062463;1223.3015873015872;1.0;0.0
-217.27119091114588;173.23119091114592;1219.1904761904761;1.0;0.0
-92.18752447014099;174.41663642150687;1219.952380952381;1.0;0.0
34.39295453494426;174.8525448827302;1217.3492063492063;1.0;0.0
160.47020550942267;174.37020550942265;1217.2857142857142;1.0;0.0
287.8905095733502;175.01805340492396;1218.095238095238;1.0;0.0
431.5239197512352;182.29794610553944;1225.7777777777778;1.0;0.0
-451.75352058302144;45.32687511646612;1209.984126984127;1.0;0.0
-339.4283994120966;47.022060409104476;1204.7777777777778;1.0;0.0
-215.25913447183936;47.08075711617957;1204.5714285714287;1.0;0.0
-91.16159082146011;47.12159082146013;1203.126984126984;1.0;0.0
33.3141738261834;47.214173826183384;1205.6349206349207;1.0;0.0
158.9241847018931;47.616242383692125;1202.5873015873017;1.0;0.0
285.3101236622049;47.7864099433867;1201.2698412698412;1.0;0.0
401.0083269206085;46.354691478038426;1203.4603174603174;1.0;0.0
-327.62309391292024;-57.73418329487074;1157.015873015873;1.0;0.0
-243.76350194702235;-58.02896366029496;1123.7460317460318;1.0;0.0
-156.78188841361845;-57.71127189101222;1153.4761904761904;1.0;0.0
-71.63741987945485;-57.73741987945485;1070.968253968254;1.0;0.0
16.723466195995982;-60.763466195996;1173.952380952381;1.0;0.0
156.2255837656489;-76.85592099985243;1188.1587301587301;1.0;0.0
162.79656341587514;-53.42354773010837;751.4285714285714;1.0;1.0
218.55879037421602;-50.43080455393638;688.968253968254;1.0;1.0
-313.203422416761;-136.89260045311656;779.7619047619048;1.0;2.0
-226.56761230817435;-133.6109489232256;776.7936507936508;1.0;2.0
-145.58100997335373;-131.6810099733537;766.5079365079365;1.0;2.0
-68.16886659986011;-132.56370836327307;778.7301587301587;1.0;2.0
11.45115165317749;-136.22735519921991;867.6825396825396;1.0;2.0
150.71331614224596;-194.753316142246;1167.936507936508;1.0;0.0
161.10275621514668;-129.09670620865757;724.5714285714286;1.0;1.0
232.3719778423107;-127.0813147764488;691.5396825396825;1.0;1.0
-347.74849012173866;-151.69863538337458;742.6507936507936;1.0;2.0
-213.94249206331872;-200.04249206331866;747.031746031746;1.0;2.0
-141.97679383129827;-203.44264960759563;738.8095238095239;1.0;2.0
-66.95061235294203;-204.9718979575805;741.7619047619048;1.0;2.0
9.345750225665746;-206.6475770518588;759.7142857142857;1.0;2.0
106.16336580120074;-240.32575059111707;1130.7619047619048;1.0;0.0
149.33140658132038;-193.37140658132046;713.1746031746031;1.0;1.0
237.32872517661835;-204.31865342837983;687.3492063492064;1.0;1.0
-252.0011485484711;-238.101148548471;568.2380952380952;1.0;3.0
-178.43961705524958;-225.39418330793401;611.7301587301587;1.0;3.0
-115.8418378023883;-217.7571834812723;618.7619047619048;1.0;3.0
-56.488189884037396;-207.69978716714348;646.7301587301587;1.0;3.0
-1.76309631131965;-205.520755994949;594.7619047619048;1.0;3.0
56.62751030689702;-214.78395467170805;559.2222222222222;1.0;3.0
120.14981267677086;-224.9019607300585;581.2222222222222;1.0;3.0
197.3994334062465;-241.4394334062466;573.3015873015873;1.0;3.0
-484.7763397343186;535.0763397343187;1291.1746031746031;2.0;0.0
-310.88155515134196;499.5883085988578;1277.4285714285713;2.0;0.0
-167.88094056331576;480.7509729253413;1266.3809523809523;2.0;0.0
-33.38577593614987;458.4260102258826;1262.2698412698412;2.0;0.0
91.93265395527793;461.27419270292415;1261.4920634920634;2.0;0.0
230.27646917122644;490.6798650678496;1263.7460317460318;2.0;0.0
383.838909849969;520.4383521540024;1275.936507936508;2.0;0.0
575.7664115367924;567.9264115367922;1288.6666666666667;2.0;0.0
-441.69672191700573;355.78649531403914;1261.5396825396826;2.0;0.0
-274.6175833718732;324.91758337187326;1247.3650793650793;2.0;0.0
-159.1088578216897;334.908044002565;1241.4126984126983;2.0;0.0
-34.10726875887666;337.1144079078548;1237.1746031746031;2.0;0.0
92.70503853490285;339.4032427609417;1238.031746031746;2.0;0.0
221.0948820821259;341.3190371458178;1236.1746031746031;2.0;0.0
346.12018019466336;338.28018019466333;1244.888888888889;2.0;0.0
525.7352021683113;374.19158722783015;1252.857142857143;2.0;0.0
-414.09821447273777;211.172139338114;1231.3809523809523;2.0;0.0
-279.3444134466741;206.25114881099873;1223.3015873015872;2.0;0.0
-156.73740124002902;207.03740124002903;1219.1904761904761;2.0;0.0
-33.572529300629846;208.9931601933173;1219.952380952381;2.0;0.0
92.25137711299338;210.60828923172298;1217.3492063492063;2.0;0.0
219.44349500404587;211.6034950040458;1217.2857142857142;2.0;0.0
349.6573442549276;213.55382191686914;1218.095238095238;2.0;0.0
498.74346154336564;222.53230274304178;1225.7777777777778;2.0;0.0
-385.6608279571691;80.47650513467448;1209.984126984127;2.0;0.0
-277.3272924342342;82.50983403586163;1204.7777777777778;2.0;0.0
-155.8484165359693;82.92345101645141;1204.5714285714287;2.0;0.0
-32.681195988181784;82.9811959881818;1203.126984126984;2.0;0.0
91.2107118729185;83.37071187291848;1205.6349206349207;2.0;0.0
208.34680356094532;81.04126653613643;1202.5873015873017;2.0;0.0
317.710973610654;78.95854850734993;1201.2698412698412;2.0;0.0
467.9760635604918;83.93006615245375;1203.4603174603174;2.0;0.0
-248.59347606002342;-18.43570472017233;1157.015873015873;2.0;0.0
-171.536925554862;-18.89163099347559;1123.7460317460318;2.0;0.0
-93.64705079168971;-19.711505468860874;1153.4761904761904;2.0;0.0
-17.088049381859683;-24.92804938185967;1070.968253968254;2.0;0.0
90.5175904591793;-40.217590459179334;1173.952380952381;2.0;0.0
144.58826192628388;-17.30980780907542;1188.1587301587301;2.0;0.0
214.5034203728385;-15.85691135901197;751.4285714285714;2.0;1.0
462.15387528412975;-40.63833558323195;688.968253968254;2.0;1.0
-250.31077458326484;-98.5127529350689;779.7619047619048;2.0;2.0
-163.17185774891868;-94.0979737245987;776.7936507936508;2.0;2.0
-87.50839501789645;-95.34839501789641;766.5079365079365;2.0;2.0
-11.261203578414936;-99.65774707580425;778.7301587301587;2.0;2.0
90.33724845659432;-162.41092757735518;867.6825396825396;2.0;2.0
145.03874623511834;-94.73874623511837;1167.936507936508;2.0;0.0
213.35569382195567;-89.3249847665134;724.5714285714286;2.0;1.0
419.9287254979645;-146.29226372638297;691.5396825396825;2.0;1.0
-274.86503534832974;-109.03672254135311;742.6507936507936;2.0;2.0
-150.51006534180146;-158.3500653418014;747.031746031746;2.0;2.0
-82.95205084626173;-165.50116736582223;738.8095238095239;2.0;2.0
-7.771647552407082;-162.9771088552213;741.7619047619048;2.0;2.0
60.43520913095579;-135.59508455774187;759.7142857142857;2.0;2.0
134.05566028226315;-153.77210675559954;1130.7619047619048;2.0;0.0
197.3627357724436;-147.06273577244372;713.1746031746031;2.0;1.0
256.60935244184293;-140.47380095895855;687.3492063492064;2.0;1.0
-191.88399352585523;-199.72399352585515;568.2380952380952;2.0;3.0
-116.95987400021119;-184.25399462548978;611.7301587301587;2.0;3.0
-56.24777988105756;-177.8312946891208;618.7619047619048;2.0;3.0
2.0134287521218965;-168.16841548134332;646.7301587301587;2.0;3.0
56.27853773694994;-169.2321944787926;594.7619047619048;2.0;3.0
116.1878969732656;-182.03128254002968;559.2222222222222;2.0;3.0
181.6699177754799;-193.4989443253346;581.2222222222222;2.0;3.0
273.9247643055649;-223.624764305565;573.3015873015873;2.0;3.0
